# .PCD v0.7 - Point Cloud Data file format
VERSION 0.7
FIELDS x y z
SIZE 4 4 4
TYPE F F F
COUNT 1 1 1
WIDTH 1546
HEIGHT 1
VIEWPOINT 0 0 0 1 0 0 0
POINTS 1546
DATA ascii
4.4081464 3.0121071 1.832585
-6.6336613 3.1420174 1.829861
-2.1320364 3.1683865 1.8835344
-2.0545256 3.1442592 1.8550718
1.349921 3.1105931 1.844319
1.4452194 3.1376078 1.8587314
1.5268283 3.1634779 1.8623366
1.6230829 3.1856916 1.8771145
3.9695101 3.1864231 1.8786682
4.0586524 3.1630831 1.8607162
4.1448812 3.1297691 1.8499399
4.2091961 3.1114273 1.8178178
-6.6168132 3.2473929 1.8278409
-6.596416 3.2632406 1.8319612
-2.1365137 3.2919922 1.8544213
-2.0802763 3.2530403 1.8439099
1.5907624 3.210361 1.8059332
1.6249931 3.2120767 1.8258572
1.7238775 3.2296441 1.8453289
1.8336531 3.2515121 1.855588
1.9370919 3.2714868 1.8593359
2.0472279 3.2853837 1.8775845
2.1494999 3.2947035 1.8783067
3.4515138 3.2956893 1.89692
3.5915532 3.2841053 1.8840828
3.6401801 3.2855992 1.874891
3.7419879 3.2766032 1.8488777
3.8389418 3.2495887 1.8524276
3.9303758 3.2233579 1.8441132
4.0335355 3.2024519 1.8186071
-6.6001124 3.3084238 1.8303235
-6.5800056 3.3640244 1.8287729
-2.118876 3.3602791 1.8635608
-2.0969794 3.3590221 1.844143
2.0333302 3.3090794 1.8214545
2.1328192 3.3180084 1.8370768
2.2401454 3.3202381 1.8552541
2.3472297 3.3289163 1.8542762
2.4444175 3.3393223 1.8489668
2.5491199 3.3436434 1.8481224
2.6395328 3.344348 1.8504823
2.7440083 3.3404658 1.8591039
2.8544531 3.3565953 1.8301926
2.9531581 3.345366 1.8502737
3.0578125 3.3467619 1.846781
3.1588218 3.3356047 1.8589653
3.2633953 3.3393033 1.8451649
3.3674164 3.3299892 1.8492963
3.4559643 3.3251443 1.843798
3.5320492 3.3135877 1.8540847
3.6429455 3.3121223 1.8211375
-6.5532746 3.4535398 1.8284172
-2.133394 3.4590571 1.836305
-2.0933213 3.433166 1.8016756
-6.5138922 3.5424895 1.8269639
-6.4922028 3.550782 1.8284783
-2.1758885 3.5574677 1.8583527
-6.5030222 3.6191397 1.8241209
-6.4491777 3.6526504 1.8274692
-2.2246511 3.6580663 1.8520771
-2.1850283 3.6324289 1.811993
-6.428432 3.7384326 1.8257354
-6.3607478 3.7991512 1.8294202
-2.3120582 3.7827089 1.8646775
-2.2638481 3.746289 1.8438702
-6.3609066 3.8427153 1.8264531
-2.3495522 3.8543756 1.8610439
-2.2942793 3.8219881 1.8043909
-6.3263645 3.9363153 1.8290278
-6.2968497 3.9978323 1.8286327
-2.4325721 3.9654648 1.8600218
-2.3765039 3.9349546 1.8361816
-6.3063912 4.0336914 1.8264339
-6.2920723 4.0701499 1.8308705
-2.4595537 4.0381451 1.8524799
-6.2733283 4.1647706 1.8296191
-2.5375991 4.1483779 1.8536258
-6.2816348 4.2377038 1.8277496
-2.615026 4.2708421 1.8678485
-2.5813029 4.2530394 1.8387997
-6.3086581 4.3456092 1.8191214
-6.2667861 4.3349786 1.8314171
-2.6270478 4.3404946 1.8413944
-6.3273783 4.4642792 1.8177272
-6.2818274 4.4441767 1.8288826
-2.7036955 4.4643569 1.8969078
-2.6701815 4.4501009 1.8404782
-6.3330212 4.5611186 1.8385899
-2.7049346 4.5750446 1.8433511
-2.6918411 4.5499406 1.8491073
-6.3349266 4.6406827 1.8206711
-2.7209847 4.6366477 1.8474799
-6.3557825 4.7504492 1.83979
-2.740274 4.7639151 1.849522
-6.3734999 4.8651228 1.8172797
-2.7489243 4.8449106 1.8463125
-6.357059 4.9572206 1.8598264
-2.7566605 4.9478736 1.8431222
-6.3523932 5.0470963 1.8383051
-2.7593613 5.0693746 1.8522812
-6.3260398 5.1440396 1.8398182
-6.2851048 5.1965008 1.8911322
-2.7548392 5.1509633 1.8295937
-6.3004446 5.2270069 1.8153887
-6.2722034 5.2540174 1.8423887
-2.7746472 5.2671194 1.8607894
-6.2299519 5.3196702 1.853421
-6.1819649 5.3794389 1.8446447
-2.7633119 5.355298 1.8322071
-6.1280618 5.4556327 1.838865
-2.817086 5.4634252 1.8576275
-2.7705348 5.4500837 1.8435313
-6.0347848 5.5397468 1.8284906
-5.955018 5.5786333 1.8664584
-2.8161469 5.5604663 1.8353528
-2.791873 5.5471144 1.8392053
-5.9486551 5.6044865 1.8196676
-5.8410835 5.6586499 1.8479642
-5.7778125 5.696991 1.8428568
-2.8497016 5.6419129 1.8578473
-5.7784686 5.7086611 1.816515
-5.6469145 5.7483702 1.8641063
-5.5961437 5.7919617 1.8214283
-3.0002913 5.7887244 1.8774052
-2.9353433 5.7641482 1.8472446
-2.8913746 5.7263031 1.8383151
-5.5060363 5.8080888 1.8474753
-5.4590583 5.8303089 1.8445286
-5.3421788 5.8602972 1.8643007
-5.2633047 5.8848524 1.862661
-5.1955247 5.8943496 1.8892357
-3.1283448 5.8886647 1.846782
-3.0446913 5.8657207 1.8377122
-2.9718277 5.8253365 1.8353583
-5.2304325 5.9085388 1.806484
-5.1458707 5.9202876 1.8455005
-5.0479341 5.9407883 1.8476808
-4.9556971 5.9591932 1.846802
-4.8458896 5.9757724 1.8530977
-4.7392244 5.9865751 1.8655839
-4.6731033 5.9947033 1.8670204
-4.5907736 5.9990191 1.8833605
-3.765892 5.9976044 1.893743
-3.6737247 5.9983711 1.8783414
-3.5715001 5.9887571 1.8544979
-3.4532413 5.9792442 1.8533245
-3.3645937 5.9724784 1.8588997
-3.261893 5.9526863 1.8542286
-3.1489255 5.9222169 1.8456918
-4.7230229 6.0014548 1.819289
-4.6382413 6.006187 1.8355302
-4.5323219 6.0140324 1.840319
-4.4373989 6.0164056 1.8557423
-4.3302445 6.0235171 1.8455753
-4.238833 6.0248046 1.8494352
-4.148499 6.0264516 1.8433238
-4.052907 6.0235834 1.8507259
-3.9598362 6.0205808 1.8531706
-3.8589289 6.0185628 1.8462878
-3.7700093 6.0145941 1.8399775
-3.6599698 6.0119295 1.8286211
-3.561244 6.0176415 1.8265145
-3.4841809 6.0080957 1.8378456
-3.3840451 6.0073261 1.8104545
-3.7185538 -6.1013107 1.9986627
-3.6409636 -6.119031 1.9548203
-3.5620441 -6.1266193 1.9658661
-3.4557631 -6.1464314 1.9572163
-3.3303802 -6.1270123 1.9421282
-3.2284906 -6.1164231 1.9292399
-3.130055 -6.116353 1.9310385
-3.0360208 -6.1086555 1.9489762
-2.9336255 -6.1096325 1.9389963
-2.850244 -6.1037073 1.9581363
-2.622829 -6.100615 1.9071269
-2.573029 -6.1013584 1.9197768
-2.4484205 -6.1031432 1.9256948
-2.362947 -6.1037183 1.9372739
-2.2589936 -6.1053119 1.9423238
-2.1548109 -6.1054726 1.9544255
-2.0576401 -6.1059213 1.9638358
-1.9504646 -6.1122279 1.9429483
-1.8472477 -6.1095314 1.961778
-1.7443968 -6.11269 1.9476675
-1.6391596 -6.1100345 1.9454342
-1.5426384 -6.109252 1.9533427
-1.4290117 -6.1076446 1.9478155
-1.336987 -6.1045117 1.968485
-1.2226267 -6.1024027 1.970633
-1.1189585 -6.1153607 1.9047847
-1.0194004 -6.1091413 1.9206692
-3.8157225 -6.0280714 1.9230721
-3.7679722 -6.0610914 1.9443078
-3.6284823 -6.077836 1.9228077
-3.5191517 -6.0601635 1.9157411
-3.4215143 -6.0785794 1.9374609
-3.3340561 -6.0915065 1.9382286
-3.2505717 -6.0972805 1.9581418
-3.178865 -6.0961542 1.9568343
-3.0737083 -6.0951324 1.9728001
-2.970232 -6.0967712 1.9659113
-2.8737078 -6.0960617 1.9728358
-2.7709274 -6.0980549 1.9544084
-2.6737969 -6.0979056 1.9632813
-2.5516329 -6.0980244 1.9629922
-2.4537404 -6.0981112 1.9793427
-2.3252068 -6.0990801 1.9799855
-2.2217624 -6.0986443 1.998901
-1.2277024 -6.097373 1.9303205
-1.1377802 -6.0956697 1.9705997
-1.0233381 -6.0849562 1.9704676
-0.91482067 -6.0824761 1.9402474
-0.81653392 -6.0494032 1.9430914
-0.74672484 -6.0350885 1.9361398
-0.63405454 -6.0018554 1.9205076
3.8997712 -6.0062761 1.9339598
3.9596767 -6.0157266 1.9445773
4.0447083 -6.034636 1.9565083
4.1550236 -6.0461416 1.9487256
4.2504644 -6.0474358 1.9671434
4.3298197 -6.0480466 1.9781001
4.4295321 -6.0387158 1.9785322
4.5269208 -6.0262904 1.9863406
4.61412 -6.0077991 1.979488
-3.907285 -5.9678912 1.9995269
-3.8089199 -5.940886 1.9916465
-3.7398393 -5.9627924 1.9890529
-0.61290812 -5.9766035 1.9416906
-0.5481323 -5.9472027 1.960145
-0.42282069 -5.9066334 1.917594
3.6507168 -5.9152231 1.9206806
3.7514398 -5.9424171 1.9421393
3.8314288 -5.9820271 1.9390459
3.9368889 -5.9942665 1.9718903
4.7479258 -5.9655638 1.9755902
4.8857117 -5.9162898 1.9049597
4.9193034 -5.9062543 1.9486911
-3.9063187 -5.867662 1.951075
-3.8596568 -5.8633337 1.9555346
-0.51834911 -5.8557987 1.9907383
-0.44643769 -5.8659582 1.9322925
-0.37063986 -5.8257189 1.9503845
3.4765668 -5.8244333 1.9272844
3.5557539 -5.8386893 1.9525379
3.6239364 -5.8642883 1.9669114
3.7299807 -5.8912778 1.9803658
4.9646711 -5.8731222 1.9660153
5.0812373 -5.8280106 1.9228812
-3.8449962 -5.7531195 1.9595566
-0.33739173 -5.7691712 1.989289
-0.26409471 -5.769352 1.9082539
-0.14753883 -5.7265072 1.9332005
-0.052401379 -5.7117558 1.9219791
0.052589696 -5.7010894 1.9602979
3.2617834 -5.707159 1.9195145
3.366359 -5.7333808 1.9382414
3.4478481 -5.7666278 1.9474956
3.5476575 -5.7702827 1.9797435
5.1434941 -5.7777705 1.9569676
5.2398405 -5.7311921 1.9416574
-3.8581429 -5.6521907 1.9799654
0.059027962 -5.6940136 1.9219571
0.1575603 -5.6882606 1.9412364
0.26085362 -5.6824951 1.9446622
0.35081235 -5.6819067 1.9513413
0.44815072 -5.6799254 1.9669166
0.54533541 -5.6778884 1.9633821
0.63679546 -5.6754227 1.9742833
0.73256588 -5.6739445 1.9556704
0.84411174 -5.6717353 1.9471509
0.95450419 -5.6694407 1.9399042
1.0574098 -5.6680655 1.9262539
1.156412 -5.6654167 1.9387473
1.2587588 -5.663548 1.9359236
1.361539 -5.6606455 1.9548256
1.4541432 -5.6591606 1.9501672
1.5566236 -5.6560922 1.9694215
1.6545871 -5.6544151 1.9649385
1.7506621 -5.6522007 1.9656969
1.8489698 -5.6514168 1.9379416
1.9464917 -5.6478138 1.9454312
2.0491214 -5.6452608 1.9319582
2.1497004 -5.6400223 1.9425312
2.2515931 -5.6374335 1.9400543
2.3565021 -5.6302066 1.9560574
2.4488473 -5.6270223 1.9585955
2.5537457 -5.6221128 1.9673916
2.6460743 -5.6171541 1.9579551
2.7500241 -5.615159 1.9643791
2.833982 -5.6138277 1.9600358
2.9334545 -5.6148753 1.9597846
3.0561337 -5.6283522 1.9282697
3.1472499 -5.6333895 1.9488882
3.2490714 -5.665834 1.9367145
3.3513947 -5.6838336 1.9742934
5.2934055 -5.6704001 1.9857577
5.3357391 -5.6716619 1.9404737
5.4386358 -5.6163454 1.9289415
-3.835686 -5.5391064 1.961738
2.8747835 -5.5951977 1.9081432
2.9725239 -5.5982852 1.9347578
3.0106194 -5.5969448 1.9079912
5.4717731 -5.5615883 1.9741144
5.5411611 -5.5466127 1.9367344
5.6237302 -5.5173216 1.901528
-3.8202691 -5.4738898 1.969218
-3.7845981 -5.4054589 1.9691635
5.5874643 -5.4995189 1.959341
5.6685357 -5.4622588 1.9444891
5.7485948 -5.421885 1.9436911
5.8130727 -5.431983 1.909405
-3.7381401 -5.3398356 1.961702
5.7661886 -5.3850646 1.954458
5.8560715 -5.3495412 1.9518948
5.9588776 -5.3419862 1.9310093
6.0370073 -5.3368311 1.9116331
6.1173825 -5.3317094 1.9045849
6.2269683 -5.3102341 1.9082497
-3.7124851 -5.2820935 1.9916359
-3.6579418 -5.236012 1.956337
5.865469 -5.2835193 1.9979181
5.9450603 -5.2706413 1.9746718
6.0416436 -5.2645988 1.9605649
6.1544547 -5.2502208 1.9562958
6.2580938 -5.2495399 1.9414215
6.3545332 -5.2464437 1.9373841
6.4623723 -5.2309217 1.9389863
6.5341916 -5.2298336 1.9110079
6.6524858 -5.2033243 1.9149009
-3.6176872 -5.1688466 1.9890904
-3.571281 -5.147049 1.9654551
6.1946654 -5.1994991 1.9589969
6.2659187 -5.1689086 1.9782641
6.3458824 -5.1710687 1.9819626
6.4700174 -5.1521215 1.9759035
6.5475874 -5.1752634 1.9651301
6.6467948 -5.1714778 1.9434443
6.7496867 -5.1364627 1.9377232
6.8225322 -5.1170812 1.9330453
-3.5186346 -5.0850806 1.9811074
-3.4422369 -5.0523162 1.9643589
-3.3356013 -5.0275254 1.9488126
6.8657851 -5.0645514 1.961669
6.9503708 -5.0509439 1.9307421
7.0262322 -5.0052891 1.9156463
-3.4162583 -4.9982352 1.9893073
-3.3563781 -4.9792166 1.9783611
-3.2455404 -4.9439278 1.9666758
-3.147367 -4.9240284 1.9516598
6.9754572 -4.9856138 1.981678
7.0604119 -4.9590974 1.9604081
7.12288 -4.9462123 1.9277102
-3.2267568 -4.8895802 1.9850143
-3.1668725 -4.872838 1.9787581
-3.044354 -4.8521938 1.9706863
-2.9564738 -4.8262358 1.9552908
7.1676292 -4.8626537 1.9631562
7.2461243 -4.8462076 1.938543
-3.0103247 -4.7842784 1.9814895
-2.9176822 -4.7593827 1.9782227
-2.8388171 -4.7430649 1.9664203
-2.7903249 -4.7087226 1.9634882
7.2830963 -4.7639117 1.9819442
7.3517756 -4.7571106 1.9284047
-2.803102 -4.6912889 1.9647994
-2.7340693 -4.6337872 1.9717053
-2.689847 -4.6101737 1.9703374
7.3516197 -4.6993113 1.9876778
7.4418364 -4.6507196 1.952266
7.5098548 -4.6380935 1.9085518
-2.7044909 -4.5985503 1.9720762
-2.6515741 -4.5407982 1.970093
7.4810872 -4.5608616 1.9924333
7.5544147 -4.5428705 1.9486791
-2.6046524 -4.4721355 1.970654
-2.5792258 -4.4282584 1.9750787
7.5724664 -4.4865117 1.9701201
7.639689 -4.4419842 1.9430923
-2.5575988 -4.3595982 1.9721206
7.6694407 -4.3412547 1.9895473
7.7350655 -4.3435926 1.9279708
-2.520957 -4.2515259 1.9746214
7.7556949 -4.2549872 1.964089
7.8267117 -4.2470508 1.9121724
-2.5071249 -4.1654987 1.9712038
-2.4938364 -4.1320047 1.9731948
7.7694798 -4.1807709 1.9896669
7.8426981 -4.1605229 1.9428023
7.9060721 -4.1171618 1.9100237
-2.500505 -4.0640516 1.9720211
-2.4902227 -4.0326195 1.9585345
7.8699327 -4.0468364 1.9747266
7.9379201 -4.0405965 1.9188185
-2.5000012 -3.9533372 1.9683288
-2.4838314 -3.9501691 1.9704392
7.8994799 -3.9902625 1.9732844
7.9527507 -3.9476326 1.9432583
8.0144358 -3.914535 1.9142991
-2.5041137 -3.8441203 1.9669117
-2.4839873 -3.8813848 1.9625714
7.949852 -3.8683016 1.977797
8.0205564 -3.8613188 1.9185899
-2.5216663 -3.7427697 1.9541738
-2.493243 -3.7385876 1.9783076
7.9744372 -3.767906 1.98519
8.0347195 -3.7458901 1.9391865
-2.5429292 -3.656172 1.9535806
7.9812994 -3.679009 1.9905226
8.0482864 -3.6411905 1.9423831
-2.6236999 -3.5126686 1.956778
-2.5683167 -3.5606012 1.9744362
7.9870315 -3.5032117 1.9920664
8.0563717 -3.5418949 1.9489979
-2.800251 -3.4157085 1.9057724
-2.7342384 -3.4220426 1.9433774
-2.6677384 -3.4655533 1.9349108
7.9919968 -3.4759996 1.9816338
8.0502338 -3.4518249 1.9519148
8.1024799 -3.4513254 1.9211683
-3.0399129 -3.3136239 1.9134531
-2.9384189 -3.3314023 1.9285182
-2.8476667 -3.3433325 1.9534624
-2.7461209 -3.3642075 1.9769785
-2.6950121 -3.3982568 1.9983743
7.9693303 -3.3353951 1.9897349
8.0493574 -3.3418615 1.9420899
8.1086426 -3.3951023 1.9075027
-3.4358902 -3.2071171 1.919185
-3.3381596 -3.222079 1.9327762
-3.2474074 -3.2318602 1.9479885
-3.1480646 -3.254056 1.9467572
-3.0387831 -3.2739975 1.9557636
-2.9789805 -3.2973609 1.9756105
-2.8857529 -3.2686825 1.9931285
7.084372 -3.2525494 1.9817929
7.1486611 -3.2215776 1.9872315
7.2163539 -3.2550611 1.9850307
7.3345499 -3.2237868 1.9791682
7.4084873 -3.2189343 1.9848493
7.8880854 -3.2250566 1.9995722
7.9582386 -3.2606509 1.9783648
8.0302553 -3.2484787 1.937117
-3.703213 -3.1269021 1.9020424
-3.6468678 -3.1266024 1.9409784
-3.5543077 -3.1541166 1.9461435
-3.4473295 -3.178278 1.9582658
-3.3769083 -3.1828318 1.9754794
6.8883085 -3.1138496 1.9868692
6.9463248 -3.1371026 1.9760021
7.0490875 -3.1363702 1.9445425
7.1381779 -3.1534905 1.9577576
7.2377176 -3.1368926 1.9474589
7.3412476 -3.1251545 1.9603192
7.4620037 -3.1465507 1.9542689
7.56809 -3.1699932 1.9983546
7.6769958 -3.1009011 1.9479793
7.8646998 -3.1422031 1.9806641
7.9571633 -3.1440151 1.9450222
8.0265341 -3.1380541 1.9126695
-3.9461803 -3.0158298 1.9121379
-3.8536491 -3.0402522 1.9471388
-3.7642756 -3.0787504 1.9442186
-3.6968842 -3.0878525 1.9743203
6.876626 -3.0375457 1.976684
6.9662967 -3.033433 1.9486169
7.0455942 -3.051805 1.9548198
7.1472549 -3.0784166 1.9642292
7.275507 -3.0415599 1.9408084
7.3851495 -3.0390959 1.9546342
7.4510727 -3.0412216 1.9280648
7.5491748 -3.0536649 1.947615
7.6615849 -3.0340347 1.9569088
7.7494845 -3.0466423 1.9537722
7.8390908 -3.0321479 1.9367355
7.9350019 -3.0381303 1.913044
-4.1270199 -2.9261253 1.9038849
-4.0517259 -2.9433391 1.9478358
-3.9667335 -2.9799836 1.9584013
6.8504815 -2.9513614 1.9786023
6.9389105 -2.9475613 1.9269972
7.0592737 -2.9474764 1.9089272
7.1558075 -2.9765277 1.9140594
7.2273979 -2.9723244 1.9123331
7.3481407 -2.9603457 1.9207375
7.4674358 -2.9680774 1.9283283
7.5582733 -2.9616127 1.9335213
7.6647434 -2.9382794 1.920084
7.7541208 -2.9548969 1.9216461
7.8196273 -2.9859948 1.9244982
-4.3034754 -2.8258762 1.9007263
-4.2490554 -2.8345041 1.9417216
-4.1608229 -2.879544 1.953256
-4.0907559 -2.8960578 1.9977123
6.863781 -2.8512454 1.9538624
6.9353232 -2.851716 1.9209564
-4.4364429 -2.7216861 1.932333
-4.3508697 -2.7668405 1.9532144
-4.2726307 -2.797071 1.9928796
6.8487873 -2.7595334 1.9576939
6.9392724 -2.740967 1.9224237
-4.5490661 -2.6413891 1.9463005
-4.4616089 -2.6837211 1.9838794
6.8526301 -2.6325183 1.966972
6.922133 -2.6404219 1.9235064
-4.724719 -2.5165761 1.9334718
-4.6510706 -2.5642509 1.9534099
6.8484516 -2.5443578 1.9676111
6.9204588 -2.5415778 1.914934
-4.8279691 -2.4269824 1.9350367
-4.7709551 -2.4656429 1.9556795
6.8610702 -2.4417622 1.9458498
6.9157782 -2.4598203 1.9197273
-4.9302907 -2.3180985 1.9502444
-4.8716264 -2.3690832 1.9598385
6.8551579 -2.349678 1.9786761
6.9167843 -2.3430102 1.9240557
-5.0285339 -2.2212985 1.908542
-4.968049 -2.2668993 1.9530164
6.8570704 -2.2280371 1.9903963
6.9206476 -2.2364583 1.9292988
-5.1195292 -2.1176856 1.9170022
-5.0620089 -2.1506219 1.9609754
6.871594 -2.1595104 1.9861119
6.9247122 -2.143728 1.9302995
-5.140635 -2.0593057 1.9494234
6.8654537 -2.0996015 1.9931583
6.9276242 -2.0535543 1.9338821
-5.3034401 -1.9035952 1.901088
-5.2289629 -1.9509525 1.9498619
-5.1880159 -1.983988 1.9679943
6.93678 -1.9422455 1.9322512
-5.3262453 -1.8209187 1.9684713
-5.287559 -1.8780432 1.9428624
6.9435682 -1.8300754 1.9293388
-5.4165525 -1.7325236 1.9143404
-5.3711638 -1.769689 1.955285
6.9437399 -1.7555714 1.9405484
-5.5072646 -1.6013911 1.9400862
-5.4556026 -1.6474105 1.9652324
6.9525347 -1.6574529 1.9312879
-5.5276732 -1.556473 1.9445031
-5.492075 -1.58925 1.9638356
6.952281 -1.5460832 1.941142
-5.6059999 -1.4158001 1.9322724
-5.5695796 -1.4605664 1.9595796
6.9559751 -1.4335096 1.9406379
-5.6330972 -1.3499119 1.9497921
6.9518833 -1.364205 1.9525145
-5.6638598 -1.2599217 1.9377211
6.9536905 -1.2513405 1.9475272
-5.7134061 -1.1376544 1.9285477
-5.6835723 -1.1640384 1.9628657
6.9515085 -1.1460584 1.9444251
-5.7229891 -1.0365889 1.9491673
6.9475799 -1.044084 1.9441127
-5.743679 -0.951594 1.9479942
6.9418736 -0.96664715 1.9364671
-5.7509279 -0.85395992 1.9652629
6.8930964 -0.85946065 1.9989386
6.9331865 -0.8615033 1.9318178
-5.8076434 -0.74380231 1.9078623
-5.768517 -0.75171155 1.9706136
6.8831367 -0.72591853 1.9848408
6.9225216 -0.74589455 1.9228216
-5.8233099 -0.60890591 1.9275124
-5.7773051 -0.65211773 1.9802055
6.8761244 -0.67095232 1.9884965
6.9096375 -0.63967341 1.9134011
-5.8440132 -0.54706877 1.9108304
-5.7860017 -0.54405063 1.9936957
6.8763318 -0.54832679 1.9513065
6.9107113 -0.57855773 1.9043736
-5.8445692 -0.45659998 1.9329927
-5.793983 -0.4524895 1.9934267
6.865509 -0.45181656 1.947389
-5.8513689 -0.34437305 1.9429376
6.8471022 -0.34529161 1.9440202
-5.87746 -0.23466316 1.9253532
6.8363452 -0.26918897 1.9471607
-5.8793926 -0.15150322 1.9303532
6.7862277 -0.17452517 1.994658
6.8245401 -0.16341445 1.9237573
-5.8702254 -0.058128521 1.944007
6.7735338 -0.053591322 1.9683459
6.8120365 -0.052284013 1.9029074
-5.8704138 0.05250581 1.9364405
6.7709599 0.052925691 1.9230363
-5.8605947 0.15006804 1.9375885
6.6926775 0.17571735 1.993399
6.7351608 0.15808061 1.9274496
-5.8396864 0.24643791 1.9432135
-5.7968149 0.29747435 1.9849634
6.6845565 0.24933203 1.9619744
6.7144523 0.24460077 1.9126657
-5.8321977 0.33689451 1.9283339
-5.7873831 0.34252524 1.9905543
6.6584678 0.35766423 1.9413382
-5.8165674 0.4613238 1.9074967
-5.7623129 0.45143986 1.9807712
6.5977597 0.4762778 1.972542
6.627316 0.45938906 1.9273893
-5.7498093 0.54853845 1.9512249
6.5664015 0.57914287 1.9547842
6.6090307 0.53469634 1.9112046
-5.7348995 0.65562445 1.9340434
-5.6858134 0.63869369 1.9756634
6.5489774 0.65124017 1.9370995
-5.714653 0.71775132 1.922439
-5.6593947 0.74317384 1.9451504
6.4856691 0.76954699 1.9610751
6.525126 0.73589897 1.9205555
-5.6402259 0.84919047 1.935535
-5.5531597 0.87114388 1.9679241
6.4658575 0.83838451 1.946575
-5.6079693 0.92940938 1.9461728
-5.5714459 0.94897443 1.9502926
6.3853436 0.97669196 1.973652
6.4383869 0.93657929 1.9226098
-5.5296974 1.0515245 1.9531896
6.3565001 1.0678562 1.9488487
6.4037247 1.0367053 1.9046135
-5.5597677 1.1386453 1.9457572
-5.4856739 1.1635393 1.9702302
6.2836614 1.164432 1.9975278
6.3327212 1.1440517 1.9274786
-5.6059442 1.2650561 1.9074237
-5.5370531 1.2439582 1.954654
6.2576985 1.2506812 1.9515839
6.3093185 1.2131065 1.9095298
-5.6057591 1.303773 1.9232954
-5.5626826 1.3629245 1.9457713
6.1710234 1.3692236 1.9842279
6.2270436 1.3325497 1.9304549
-5.626893 1.4481553 1.9344262
-5.5854039 1.4051683 1.9566607
6.1476698 1.4447613 1.9474373
-5.809773 1.5952412 1.927848
-5.7336421 1.5639338 1.9583162
-5.6646204 1.5333073 1.9560435
6.0673275 1.5531982 1.9705402
6.1208205 1.5124094 1.9250677
-5.8464074 1.6676437 1.9416739
-5.7570229 1.6414256 1.9770199
5.9720502 1.6864282 1.9845648
6.0263271 1.6488473 1.9417517
-6.025888 1.7590365 1.9509562
-5.9463468 1.7390429 1.9469467
-5.8682098 1.7111554 1.9332494
5.8930154 1.7823886 1.9969654
5.9469213 1.7508782 1.956601
-6.201704 1.8674556 1.983445
-6.1391592 1.8661804 1.9489772
-6.0446782 1.8258567 1.972674
5.8668132 1.8548797 1.9640249
5.9196682 1.8193922 1.9207639
-6.3074961 1.9891237 1.966576
-6.2452831 1.936114 1.9519097
-6.1489253 1.9019465 1.9343199
5.7720261 1.974913 1.9598261
5.8204908 1.940061 1.9370619
-6.4118805 2.0924428 1.93752
-6.3605351 2.0510073 1.9444276
5.6776958 2.0784729 1.9603574
5.7278357 2.0381644 1.942052
-6.4573135 2.1715283 1.9474806
5.5803876 2.1712263 1.9612571
5.6364379 2.1301086 1.9472702
-6.5151114 2.2852604 1.9363823
-6.4864578 2.229707 1.9373204
5.4598384 2.2726581 1.973015
5.5320067 2.2298644 1.9437658
-6.5462084 2.3516321 1.9353845
5.3625402 2.3630478 1.9622821
5.4344544 2.327744 1.9268812
-6.6011815 2.4998317 1.9322941
-6.5743532 2.4395483 1.9345099
-1.9182482 2.469641 1.9923524
-1.8701142 2.4732573 1.9826391
-1.7788311 2.4511068 1.9649483
-1.6611171 2.4785545 1.9175911
-1.5417864 2.4989014 1.9124275
-0.73276854 2.4845176 1.9998226
-0.63431346 2.4972723 1.9674759
-0.55573201 2.4811444 1.9575281
-0.45468616 2.4772706 1.9548479
-0.3656987 2.4610181 1.9602052
-0.27075338 2.465215 1.9552028
-0.17593265 2.4707425 1.9568402
-0.0688629 2.4825702 1.9741633
0.033110127 2.4984448 1.9824466
5.1734538 2.4950979 1.994913
5.2506862 2.4614956 1.9570156
5.3182278 2.4275436 1.9265207
-6.6078606 2.5562539 1.9329393
-6.5946064 2.548378 1.9347889
-2.0265126 2.5575023 1.987385
-1.946134 2.5572038 1.94757
-1.84117 2.5457742 1.9278606
-1.7586721 2.5604639 1.9126613
-1.6586285 2.5494986 1.9336249
-1.5603155 2.5396469 1.9439483
-1.4633321 2.5346594 1.9385734
-1.3618813 2.5398953 1.9599444
-1.2660922 2.5480318 1.9697974
-1.159076 2.5614355 1.9845637
-1.0705197 2.5640497 1.9854422
-0.95298362 2.5640001 1.9767962
-0.85317075 2.5626717 1.9554929
-0.75913078 2.5521352 1.9530867
-0.65407151 2.5387383 1.9367023
-0.5559479 2.519165 1.9259319
-0.48292217 2.5229456 1.9229087
-0.36574867 2.5176189 1.9006808
-0.16389427 2.5091691 1.9085259
-0.045326207 2.51355 1.9393753
0.036848858 2.5167303 1.9603825
0.14692059 2.5550599 1.9626318
0.23787713 2.5798445 1.973215
5.0619535 2.5875218 1.9839116
5.1522999 2.5501862 1.943431
5.239089 2.5035822 1.9160886
-6.6211033 2.670398 1.9328673
-2.037863 2.6548593 1.9447833
-1.9551941 2.6494541 1.9120753
-1.3172874 2.6442585 1.9042282
-1.2308037 2.620038 1.9401069
-1.1170281 2.6475654 1.912082
-1.030607 2.6159456 1.9474149
-0.94355631 2.631664 1.9054104
0.25661922 2.6180985 1.9288615
0.33846602 2.6319482 1.9537321
0.42726281 2.6774044 1.943264
4.875793 2.6950631 1.9951694
4.9616265 2.6766963 1.9530541
5.0458336 2.6297612 1.9421529
-6.6279836 2.7627048 1.933547
-2.1240587 2.7531929 1.9858745
-2.0586302 2.746145 1.9347081
-1.9911542 2.7129726 1.9418738
0.49051416 2.7115638 1.9208159
0.55465508 2.7220085 1.9623032
0.64940208 2.7669594 1.9377384
0.73319447 2.784404 1.9777114
4.6793046 2.7934148 1.9964567
4.7626953 2.7772739 1.9570599
4.8487539 2.745399 1.9502426
4.9305573 2.7187576 1.9216541
-6.630765 2.8529947 1.9314992
-2.1142039 2.8358719 1.9595733
-2.0464716 2.8322499 1.959362
0.7683723 2.8275359 1.9231254
0.85456675 2.8474305 1.9521827
0.92794627 2.8697631 1.9672846
4.4782538 2.8825366 1.9985212
4.549634 2.8736048 1.9637591
4.6350703 2.848772 1.9496042
4.7291389 2.8141701 1.937282
-6.6278801 2.967967 1.9303163
-2.1185439 2.944936 1.9318539
-2.0647154 2.9434686 1.9395844
0.93807119 2.9054103 1.911402
1.0493246 2.9293246 1.9551665
1.1402032 2.9784393 1.9338243
1.2612188 2.992429 1.9901413
4.2892041 2.9813991 1.9874775
4.3595233 2.9709437 1.9449152
4.4523416 2.9272306 1.9491825
4.541225 2.9189997 1.9122188
-6.6177955 3.0663507 1.9313377
-2.1380694 3.0393178 1.9510463
-2.0784197 3.0519552 1.9222686
1.2453986 3.0204933 1.9401999
1.3381543 3.0405579 1.9697038
1.4390957 3.0811648 1.959746
4.0768924 3.0850022 1.9672419
4.161767 3.0610633 1.9511497
4.2392731 3.0242789 1.9548199
-6.6117258 3.1336846 1.9280634
-6.5911999 3.1792884 1.9342475
-2.1368222 3.1404269 1.9698994
-2.0905871 3.1429315 1.9400744
1.5281119 3.1201751 1.9431803
1.6392722 3.1478698 1.9520935
1.7392235 3.1684487 1.964662
1.8448511 3.1819713 1.9859933
3.7538786 3.1971011 1.9836922
3.862231 3.1827598 1.9575636
3.9564288 3.1552989 1.9476724
4.0415015 3.1243811 1.9439275
4.120719 3.1081522 1.9211192
-6.6058655 3.2280719 1.9250684
-6.5850906 3.2537401 1.9284765
-2.1360962 3.2546704 1.9476479
1.7433231 3.2041776 1.9016659
1.846169 3.2111616 1.931113
1.9491411 3.2350619 1.9320863
2.0514891 3.243937 1.947342
2.1548488 3.2559607 1.9547713
2.2575817 3.2644525 1.9592247
2.34916 3.2781138 1.9534651
2.443011 3.2825844 1.9543263
2.5433986 3.2766435 1.9693508
2.6428425 3.2744081 1.9728999
2.7421713 3.2829449 1.9626113
2.8587861 3.2802553 1.9666353
2.9446507 3.2818434 1.9626096
3.0559974 3.2736135 1.9717209
3.161334 3.2771244 1.9584689
3.2474821 3.2778823 1.9544283
3.3553677 3.2731774 1.9534233
3.4600112 3.2675793 1.9481287
3.5586555 3.254283 1.9494928
3.661504 3.2407694 1.9453975
3.7604606 3.2170129 1.9466923
3.8405657 3.2157588 1.9170408
-6.5578904 3.3556263 1.9284605
-2.165828 3.3527024 1.9634136
2.3515246 3.3079636 1.9005492
2.4529796 3.3031104 1.911063
2.5215697 3.3045576 1.9215635
2.6556966 3.3078661 1.9181266
2.7215321 3.310689 1.9195414
2.8347628 3.3096764 1.9161745
3.0333698 3.3075297 1.9130384
3.1590247 3.3093419 1.9153937
3.247786 3.3019476 1.912509
-6.5284691 3.4536278 1.9277344
-2.2062092 3.4876573 1.9658399
-2.1740427 3.4410136 1.9425093
-6.5046053 3.50843 1.9313834
-6.4787879 3.5524158 1.9267373
-2.2257409 3.5647664 1.947986
-2.1999948 3.5444705 1.9213259
-6.4382377 3.6483011 1.9267277
-2.2569611 3.6349761 1.9501354
-6.4156561 3.7339797 1.9246457
-6.3794785 3.7675364 1.9288307
-2.3302195 3.7592747 1.9502401
-2.2888172 3.7237563 1.9240943
-6.3486304 3.8437212 1.926437
-2.4300761 3.8749168 1.9707782
-2.3771906 3.8431332 1.9508958
-6.3182101 3.9385414 1.9285747
-6.2895899 3.9945557 1.9276652
-2.5099456 3.9794579 1.9836826
-2.4466155 3.9422922 1.943067
-6.3015981 4.0346608 1.9234061
-6.2902536 4.0637803 1.9290187
-2.53601 4.0611973 1.9588073
-2.4884367 4.0208883 1.9006757
-6.2679291 4.1645765 1.9288092
-2.6056886 4.1291738 1.9894199
-2.5782335 4.1302009 1.9422754
-6.2763767 4.2382488 1.9267831
-2.6517508 4.2472963 1.9594886
-6.301486 4.3438902 1.9208295
-6.2702627 4.3379817 1.926897
-2.7223816 4.39219 1.9711077
-2.6780925 4.3385811 1.9399682
-6.3233261 4.4830384 1.9145781
-6.2769561 4.4386387 1.9275254
-2.7315791 4.4491267 1.952292
-6.3206973 4.5595465 1.9368496
-2.7468071 4.5566878 1.9428368
-6.3330998 4.6506019 1.9182249
-6.2867155 4.6060677 1.9255614
-2.8078816 4.6617718 1.9910103
-2.7678609 4.6404471 1.9418137
-6.3370299 4.7463541 1.9383596
-2.7783062 4.7481484 1.938611
-6.3421049 4.8615618 1.9197519
-2.8047881 4.8370342 1.9547305
-2.7885592 4.8558311 1.9388597
-6.3275599 4.9505782 1.9533476
-2.8113985 4.9547019 1.9388018
-2.793375 4.9400501 1.9350924
-6.319396 5.0304499 1.9339279
-6.2891498 5.0788078 1.9498022
-2.8115704 5.0671053 1.9440365
-2.7863331 5.0530262 1.9464152
-6.3073015 5.1176372 1.926652
-6.2799306 5.1370187 1.9427558
-2.8095794 5.1356897 1.9468802
-2.76893 5.1583109 1.9147012
-6.2329154 5.245832 1.9332793
-6.1969891 5.2370677 1.9880602
-2.8192251 5.2663293 1.9540263
-2.7919283 5.2325883 1.9624537
-6.1513648 5.3549652 1.9388794
-6.0800014 5.3965654 1.9875865
-2.8192992 5.361661 1.9613266
-2.7860889 5.3326087 1.922461
-6.103291 5.4222956 1.9459249
-6.0554605 5.4655733 1.9284387
-5.9891582 5.4826012 1.9892961
-2.8388734 5.4569077 1.9610987
-2.790539 5.4004774 1.9303076
-5.9537449 5.5374355 1.9546976
-5.8963075 5.5778522 1.9509401
-2.8538804 5.5570383 1.9418923
-5.8541145 5.6132889 1.9410305
-5.7459874 5.6610723 1.9744016
-2.9318674 5.6707087 1.9721334
-2.8912065 5.6430984 1.9582125
-5.7149568 5.7103515 1.9039842
-5.6798301 5.7072577 1.9580059
-5.5594182 5.7545476 1.9578367
-5.4665422 5.7945089 1.9406757
-3.0160646 5.773128 1.9706529
-2.9538293 5.7378874 1.9446018
-5.4171853 5.8039293 1.973681
-5.354414 5.8310766 1.9493582
-5.2395091 5.8629122 1.9580456
-5.1519575 5.8891811 1.9491695
-3.3075631 5.8999505 1.999962
-3.2101243 5.8808026 1.9410897
-3.1320915 5.8667932 1.9560375
-3.0496948 5.8336315 1.9363906
-5.1107435 5.9111447 1.9060541
-5.0487318 5.9100752 1.9584438
-4.9473844 5.9329023 1.9495842
-4.8564644 5.9475055 1.9504039
-4.7478242 5.96699 1.9379699
-4.6500964 5.9706721 1.9633852
-4.5410643 5.9838257 1.9480557
-4.4541078 5.9876409 1.9583403
-4.3587356 5.9924216 1.9567267
-4.2625632 5.9913712 1.9707359
-4.1304836 5.9881935 1.9828168
-4.0571465 5.9933801 1.9713725
-3.9541988 5.9920096 1.9608006
-3.8465662 5.9872203 1.9595356
-3.7551224 5.9811287 1.9654312
-3.6552577 5.9764185 1.9594691
-3.5450847 5.9780841 1.9612278
-3.4538877 5.9574189 1.9517151
-3.3504472 5.9454784 1.9470021
-3.2672484 5.9345574 1.9405767
-3.184885 5.922245 1.9302322
-4.3311577 6.0056019 1.9149934
-4.2138343 6.0057912 1.9224062
-4.1438789 6.005199 1.9290724
-4.0328016 6.0047259 1.9227332
-3.9571097 6.0046411 1.9104738
-3.8956494 6.0000005 1.9281743
-3.7477014 6.0093241 1.9280413
-3.643961 6.0021567 1.9621557
-3.5395072 6.0024061 1.9060374
-3.6330025 -6.1222153 2.0516753
-3.5509393 -6.1237636 2.0237467
-3.4433911 -6.1289916 2.0438139
-3.3479371 -6.1368585 2.0477307
-3.2456713 -6.1320758 2.0604131
-3.1499424 -6.1305885 2.0520408
-3.0440021 -6.1084757 2.0705161
-1.9739575 -6.1015053 2.0135195
-1.7451336 -6.1008444 2.0142307
-1.5677205 -6.1011605 2.0050864
-1.4910266 -6.1055479 2.0125127
-1.3632882 -6.1073685 2.0147696
-1.2596982 -6.1145563 2.0335565
-1.1656433 -6.1100745 2.029052
-1.0868859 -6.1079855 2.0497055
-3.8705797 -6.0261211 2.0673351
-3.7265747 -6.0512118 2.0626202
-3.6384566 -6.0543947 2.0491617
-3.5448248 -6.0646677 2.0512762
-3.4433837 -6.0871973 2.0703263
-3.322247 -6.0933523 2.0814114
-3.2219679 -6.0996976 2.0570138
-3.1304388 -6.095437 2.0472305
-3.035398 -6.0931163 2.0317175
-2.9463475 -6.0940681 2.0373411
-2.8497472 -6.0915146 2.0305359
-2.7534869 -6.0916553 2.0365789
-2.6540437 -6.090868 2.0372715
-2.5585105 -6.090322 2.051048
-2.4578712 -6.0906034 2.0536149
-2.3608634 -6.0918846 2.0541034
-2.2636876 -6.0917549 2.0650954
-2.1616364 -6.0948343 2.0520456
-2.0566597 -6.0938115 2.0687835
-1.9375592 -6.0985532 2.0476856
-1.8480089 -6.0982599 2.0517163
-1.7401335 -6.0980711 2.0650437
-1.6457993 -6.0974035 2.0580776
-1.5274105 -6.0961938 2.0652013
-1.4463005 -6.0958905 2.0566492
-1.3352255 -6.0932035 2.0701354
-1.2785239 -6.0952773 2.0425048
-1.1833445 -6.0955963 2.0248463
-1.0488884 -6.0952654 2.0272276
-0.95876837 -6.0810671 2.0403094
-0.85812557 -6.0593719 2.043515
-0.75305802 -6.0262122 2.044802
3.9602368 -6.0115542 2.0621247
4.0501027 -6.0232358 2.0409343
4.140192 -6.0353284 2.0372579
4.2586303 -6.0437021 2.0254607
4.3609843 -6.0391173 2.0222793
4.4589281 -6.0295973 2.0289609
4.5585699 -6.0109687 2.0310888
4.6277313 -6.0060077 2.0063605
-3.9224434 -5.9477749 2.0333111
-3.8192682 -5.9592099 2.0363963
-3.760222 -5.9944491 2.0243511
-0.67081296 -5.9758739 2.0521638
-0.5579468 -5.9393864 2.0423787
-0.48666903 -5.9048562 2.0801597
3.6825204 -5.9034486 2.0477829
3.7465544 -5.9252486 2.0611391
3.8585684 -5.9621801 2.0376174
3.9195023 -5.9795089 2.0739207
4.6581855 -5.9860487 2.0285244
4.7415428 -5.9568701 2.0426922
4.8382697 -5.9230633 2.0295675
-3.9436367 -5.8346267 2.0607028
-3.8603938 -5.8719277 2.0682659
-0.55689812 -5.8742905 2.0601506
-0.45202148 -5.8221779 2.0345435
-0.36287242 -5.8115721 2.0327005
3.5563447 -5.8251305 2.0558689
3.6518445 -5.854362 2.0333591
3.7141538 -5.8708177 2.0683722
4.8894453 -5.897728 2.0338373
4.9728317 -5.8518109 2.055624
5.0337629 -5.8234606 2.028131
-3.9595408 -5.7651606 2.0312221
-3.8675878 -5.7379632 2.0453923
-0.34544221 -5.7773523 2.0536857
-0.25112024 -5.7428184 2.0433631
-0.16162682 -5.7184143 2.0507514
-0.076410517 -5.7043467 2.0868397
3.3608875 -5.7061987 2.0571733
3.4484944 -5.7376947 2.0285492
3.5343323 -5.7772398 2.0684085
3.614176 -5.7976818 2.0405936
5.171731 -5.7274609 2.0571582
-3.9394724 -5.6534338 2.0545361
-3.8775809 -5.6371808 2.0681214
-0.11789861 -5.6986895 2.0586269
-0.045812052 -5.690413 2.0512075
0.044408429 -5.681047 2.0608068
0.15268412 -5.6729541 2.0681036
0.24567693 -5.6728811 2.072547
0.35735512 -5.6739802 2.064029
0.45818606 -5.673214 2.0677059
0.55439007 -5.673574 2.0426493
0.65231574 -5.6719136 2.0328782
0.74872285 -5.6688724 2.0386455
0.84731722 -5.6662679 2.0407979
0.9456076 -5.6634994 2.0508873
1.0472823 -5.6612682 2.0488088
1.1478875 -5.6585937 2.0593135
1.2488418 -5.6574574 2.0481133
1.349206 -5.6553435 2.0517914
1.4602522 -5.6540704 2.0384073
1.5406994 -5.653213 2.0289347
1.6467812 -5.6509151 2.0300031
1.7412434 -5.6481547 2.0437117
1.8420888 -5.645988 2.0430317
1.9366057 -5.6428514 2.0579588
2.0427496 -5.6406531 2.0501282
2.1388998 -5.6369801 2.06638
2.2457733 -5.6308956 2.0476618
2.3407869 -5.6242232 2.0586085
2.4745781 -5.6106777 2.0413713
2.5541029 -5.6024675 2.0164423
2.6979697 -5.6042085 2.0123205
2.7543826 -5.6035676 2.0149658
2.8721333 -5.609611 2.007555
3.0245183 -5.6167169 2.0136387
3.1379395 -5.6160164 2.0472069
3.2420349 -5.6351953 2.0481
3.3333955 -5.6597404 2.0626922
3.4396541 -5.6733537 2.0841837
5.2590938 -5.6598949 2.0628572
5.3340783 -5.6244473 2.039407
-3.9368556 -5.5894842 2.0392923
-3.86376 -5.5326538 2.0703616
2.5664942 -5.5926385 2.0499115
2.6469121 -5.5927968 2.031095
2.7517161 -5.5808454 2.0487742
2.8434713 -5.5817132 2.0415866
2.9486248 -5.5788169 2.0525811
3.0509553 -5.5798326 2.0591071
3.1398644 -5.5851221 2.0650907
3.2543013 -5.5965624 2.0847616
5.3836756 -5.562408 2.0753777
5.4448104 -5.5437479 2.0413725
-3.852221 -5.4555411 2.0591724
5.4605327 -5.4786191 2.0941837
5.5580173 -5.4455848 2.0492868
5.6163783 -5.4219093 2.0340903
-3.814537 -5.3853831 2.0832112
-3.7796679 -5.3373199 2.0570424
5.6577058 -5.3604565 2.0645409
5.7429376 -5.3212223 2.0373774
-3.7273843 -5.2510939 2.0764229
-3.6956196 -5.2178888 2.0770519
5.6801891 -5.2948599 2.0911555
5.7510848 -5.2538581 2.0851181
5.8512597 -5.2396102 2.0508869
5.9409814 -5.2169256 2.0312963
6.0056992 -5.2068868 2.0044758
6.2260814 -5.2184381 2.0038326
-3.6420367 -5.1528893 2.0775638
-3.5948675 -5.1252904 2.038553
5.8752017 -5.1736321 2.0627153
5.9571266 -5.158227 2.0642395
6.058949 -5.163415 2.0368373
6.1444082 -5.1518922 2.0252361
6.2484746 -5.1389937 2.041086
6.358707 -5.1435242 2.0334616
6.4523034 -5.1423206 2.0281124
6.5576229 -5.1198087 2.0261328
6.6231823 -5.1131206 2.0245264
-3.5442624 -5.0660768 2.0753224
-3.4698062 -5.0358667 2.0607057
5.9613328 -5.0912981 2.0801675
6.0424314 -5.0704823 2.0780935
6.159214 -5.0594749 2.0780206
6.2608504 -5.0419898 2.0615613
6.3486562 -5.0655684 2.0702262
6.4603386 -5.0610991 2.0614548
6.5583148 -5.0608406 2.0700634
6.6484842 -5.0680656 2.0569363
6.7470036 -5.0544343 2.0360999
6.834549 -5.020895 2.0356967
-3.4392986 -4.9728012 2.0797064
-3.3545747 -4.9497323 2.07181
-3.2412233 -4.9160337 2.0582135
6.1336064 -4.988965 2.0990615
6.2138281 -4.9924521 2.0919042
6.3023257 -4.9833946 2.0972042
6.7104449 -4.9940038 2.0913424
6.8477149 -4.970397 2.0793092
6.9499731 -4.9431963 2.0535026
7.0494709 -4.9300518 2.0241671
-3.237725 -4.862165 2.077626
-3.1278198 -4.8432374 2.0719051
-3.0341761 -4.8284755 2.0632589
6.9725528 -4.8687043 2.0971823
7.0511174 -4.8758683 2.0572386
7.1280041 -4.8457489 2.0441556
7.2103286 -4.8110633 2.0320721
-3.0540972 -4.768291 2.0773675
-2.9689212 -4.7525301 2.0752802
-2.8596952 -4.7259912 2.0691044
7.1579528 -4.7593703 2.078058
7.2350373 -4.7574482 2.0397742
-2.8065832 -4.6457872 2.0743868
-2.7323432 -4.6202259 2.0734701
-2.6971617 -4.6061964 2.070864
7.2797914 -4.6766715 2.0698082
7.3577814 -4.6352615 2.0413241
-2.66013 -4.5449667 2.0651422
7.4501805 -4.5318851 2.0569351
-2.6028774 -4.4726496 2.0700545
-2.5810947 -4.4499221 2.0724444
7.4597344 -4.4662147 2.0655355
7.5308976 -4.440753 2.0349214
-2.5489144 -4.3654819 2.0636249
7.5711927 -4.3311081 2.0690994
7.6280298 -4.3485918 2.0266643
-2.5111654 -4.2650132 2.0743949
-2.4993784 -4.2385793 2.075459
7.5990505 -4.227787 2.0975738
7.6571541 -4.2479687 2.0535765
-2.4805391 -4.1401997 2.0664151
7.6697178 -4.1653452 2.0758934
7.7412009 -4.1483746 2.0374238
-2.4714811 -4.0336685 2.059145
7.6904068 -4.04987 2.0984645
7.7563133 -4.044724 2.0661464
7.8262239 -4.0384865 2.0240145
-2.4689448 -3.9278295 2.0660064
7.7686892 -3.9468617 2.0865848
7.8491812 -3.9470353 2.0285115
-2.4657118 -3.8553843 2.0653398
7.7818527 -3.8557639 2.0929391
7.8537188 -3.8682611 2.0512183
7.9141359 -3.852196 2.015681
-2.4783223 -3.7338946 2.0671153
7.7955761 -3.7952714 2.0958717
7.8658447 -3.7595818 2.0613155
7.9479308 -3.7331781 2.0079601
-2.5229216 -3.6194677 2.0527306
-2.4917915 -3.6697896 2.0556598
7.8684115 -3.651561 2.0727384
7.9296093 -3.6422665 2.0330651
-2.6010571 -3.5086205 2.0120394
-2.5432107 -3.5319817 2.0720763
7.8629155 -3.5491569 2.0723875
7.9673057 -3.5441341 2.0133743
-2.6384807 -3.45028 2.0210061
-2.5851336 -3.4841979 2.0455086
6.9538064 -3.4317596 2.0901251
7.0584998 -3.4064217 2.0816505
7.1382756 -3.4492342 2.0947568
7.7940197 -3.4529867 2.0993667
7.8578806 -3.4412415 2.0656636
7.9522233 -3.4560866 2.0177636
-2.8525524 -3.3170121 2.0499408
-2.7476814 -3.3457618 2.0429795
-2.6489677 -3.3720322 2.0788207
6.7962055 -3.3376079 2.0932946
6.9498258 -3.3404293 2.0544522
7.0692978 -3.3481121 2.0479603
7.1628985 -3.3403444 2.0472133
7.2520871 -3.3681569 2.0663395
7.3507586 -3.355247 2.0724034
7.4476333 -3.3579159 2.0787065
7.5511708 -3.3497849 2.0844285
7.6542683 -3.3477402 2.0867267
7.763341 -3.3629644 2.0839555
7.8658142 -3.3378305 2.0423539
7.9430242 -3.3484125 2.0091395
-3.2548707 -3.2034318 2.0276175
-3.14324 -3.2162762 2.0552716
-3.0416436 -3.2327321 2.052526
-2.9451222 -3.2603457 2.0315673
-2.8686817 -3.2685866 2.0536857
6.7922273 -3.2688649 2.0977802
6.8491831 -3.2508149 2.066051
6.938756 -3.2572398 2.0415144
7.0414443 -3.2570097 2.0419328
7.1400137 -3.2626145 2.0584826
7.2385216 -3.2566867 2.062551
7.3487411 -3.251092 2.0802753
7.4576964 -3.2447269 2.0696278
7.5562296 -3.2309754 2.0499933
7.658 -3.2436092 2.0633965
7.7395124 -3.258033 2.0575209
7.8405046 -3.2547045 2.0284662
7.9082003 -3.2673087 2.0059104
-3.6069245 -3.1019924 2.0133548
-3.5316226 -3.1215949 2.0334153
-3.4717991 -3.1279445 2.0529873
-3.3598795 -3.1603749 2.0472836
-3.253412 -3.1739137 2.0585964
-3.1433249 -3.187149 2.0501413
-3.0556195 -3.1985605 2.0521102
6.7731671 -3.1494927 2.0886698
6.8494229 -3.1488228 2.0382164
6.9341621 -3.1534131 2.0389981
7.051651 -3.1440678 2.0216737
7.1475506 -3.1583953 2.027915
7.2549391 -3.1537478 2.0374827
7.3638864 -3.1457233 2.0225451
7.4578385 -3.1519878 2.0357809
7.5640521 -3.1562846 2.0443013
7.6558208 -3.1488121 2.0306001
7.7543712 -3.1509836 2.0172501
7.8256187 -3.163594 2.0103495
-3.8441918 -3.0032451 2.0271292
-3.747705 -3.0358608 2.0431762
-3.6550634 -3.066699 2.0551772
-3.5725253 -3.0956357 2.0560107
6.7729616 -3.0509114 2.0682738
6.8461089 -3.0478864 2.0334778
7.4332452 -3.0893726 2.0194025
7.5632243 -3.0648432 2.0072801
7.641952 -3.0677893 2.00402
-4.0209475 -2.9191127 2.0301991
-3.9556396 -2.9385886 2.0497191
-3.8805199 -2.9701202 2.0615153
-3.7977288 -2.9914989 2.0886173
6.7643089 -2.9472983 2.0572627
6.8276205 -2.9451938 2.0326242
-4.1522913 -2.8402872 2.0412228
-4.0683274 -2.8748198 2.0580053
6.7695398 -2.8646295 2.0591552
6.8496704 -2.8537855 2.0294902
-4.3416944 -2.7316806 2.0363491
-4.2546391 -2.7746179 2.0508385
-4.1926584 -2.7940159 2.0707452
6.7760353 -2.7356329 2.0536761
6.8261909 -2.7541873 2.039736
-4.5279298 -2.6123269 2.0302567
-4.4515157 -2.6542039 2.0513153
-4.3759499 -2.6829622 2.0751626
6.7824368 -2.6416445 2.0726624
6.8318014 -2.6297331 2.0450163
-4.6294999 -2.5365963 2.0380192
-4.5571465 -2.5749283 2.0640225
6.7836061 -2.5524526 2.0456848
6.8319025 -2.543807 2.0453563
-4.7392325 -2.4413581 2.0456839
-4.6702042 -2.4929414 2.0593262
6.7924795 -2.4560823 2.0643673
6.8438134 -2.454505 2.0402815
-4.8432126 -2.3446379 2.042726
-4.7936563 -2.3723676 2.0683024
6.7911015 -2.3723495 2.0679903
6.84303 -2.3423903 2.049809
-4.924521 -2.254766 2.0492618
-4.8633547 -2.2904351 2.09536
6.8565917 -2.2370939 2.0379333
-5.027163 -2.1539059 2.0167427
-4.9807267 -2.1793277 2.0558484
6.8587613 -2.1416109 2.0532739
-5.1220255 -2.0286598 2.0278783
-5.070663 -2.0638626 2.0677667
6.8752422 -2.0530486 2.0332174
-5.1660757 -1.961096 2.0447268
6.8743005 -1.9418054 2.043036
6.9002886 -1.9420431 2.0116625
-5.3058586 -1.8087289 2.0156319
-5.2413797 -1.865059 2.0499923
6.8905244 -1.8271955 2.0331368
6.9051428 -1.8431451 2.0087976
-5.3504224 -1.7215582 2.0555809
-5.2988772 -1.7921433 2.0788107
6.8856845 -1.7539116 2.0521119
6.9071403 -1.7421558 2.0123136
-5.4281058 -1.6421282 2.0379999
-5.3807096 -1.6791575 2.055536
6.8916936 -1.6480244 2.0500958
6.9086981 -1.6583697 2.0155287
-5.5010409 -1.5050521 2.0593507
-5.4735174 -1.5375484 2.0679383
6.8879676 -1.5485898 2.066397
6.9069233 -1.5374058 2.0293832
-5.5388184 -1.4579709 2.0334167
6.8879108 -1.4573326 2.0738282
6.9093542 -1.4315169 2.0284305
-5.6058435 -1.3473262 2.0240822
-5.5765204 -1.3499484 2.064733
6.8913727 -1.366367 2.0712616
6.9072661 -1.3553404 2.0407541
-5.6219139 -1.2570623 2.0383241
6.8908339 -1.2523069 2.0708258
6.9101462 -1.2568495 2.0321507
-5.6490836 -1.1392246 2.0507808
6.8898134 -1.1365967 2.0652318
6.9076991 -1.1517489 2.0316696
-5.7057939 -1.0268937 2.0205455
-5.672143 -1.0474446 2.0413775
6.880794 -1.0388818 2.0702305
6.9069176 -1.0314549 2.0209541
-5.7061901 -0.94119525 2.0331411
-5.6838055 -0.96225369 2.0508673
6.885632 -0.96492571 2.0467823
6.9002857 -0.94409132 2.0198424
-5.7123871 -0.84508002 2.0416579
-5.6868973 -0.86181939 2.0660658
6.8718514 -0.84625715 2.0494845
-5.7219644 -0.74769735 2.0532098
-5.6990051 -0.74464929 2.0705135
6.8622036 -0.7376942 2.0381911
-5.7284722 -0.63330662 2.0583079
6.8406715 -0.63108736 2.0510771
-5.7360158 -0.56337035 2.0638556
6.8320999 -0.55425644 2.0430217
-5.7567677 -0.4558889 2.0530722
6.8162494 -0.4473469 2.0448248
-5.8093243 -0.35081124 2.0082662
-5.7488565 -0.34574032 2.0809865
6.7804289 -0.35787573 2.0774455
6.8132057 -0.33374518 2.0118966
-5.8150358 -0.23558931 2.006819
-5.7509956 -0.23806798 2.0862865
6.7733626 -0.24807125 2.058424
6.8024421 -0.23878302 2.0033197
-5.819262 -0.15789677 2.0092177
-5.7577667 -0.16226947 2.0868025
6.7673035 -0.15851948 2.0339563
-5.8182049 -0.045199446 2.0092673
-5.7608376 -0.056703966 2.0826373
6.6986952 -0.010673935 2.0867505
6.7332487 -0.051339604 2.0478406
-5.8123198 0.052568153 2.0099652
-5.7568059 0.049242646 2.0809393
6.692637 0.09263929 2.0449591
6.7260051 0.04744288 2.014219
-5.8123026 0.14777112 2.0035441
-5.7625299 0.15456848 2.0625794
6.6611428 0.16404441 2.061259
6.7080708 0.11703544 2.0036361
-5.7538228 0.22923745 2.055239
6.5993528 0.2695331 2.0963256
6.6521211 0.23738793 2.0323737
-5.733006 0.3368758 2.0542502
-5.6852827 0.36992991 2.0894444
6.5860863 0.36005861 2.0681696
6.6249743 0.33989868 2.0173104
-5.7145309 0.42912936 2.049607
-5.6854134 0.47260749 2.0640752
6.5594764 0.4569045 2.0484369
-5.7096901 0.52090263 2.0224135
-5.6575294 0.56686437 2.0544863
6.4879251 0.57888848 2.0801966
6.532701 0.54731357 2.0356925
-5.6312718 0.64743632 2.0442238
6.4708314 0.66810185 2.0542486
6.5144262 0.63350725 2.0041492
-5.6348963 0.7503674 2.0130787
-5.5663309 0.74260205 2.0529594
-5.4995565 0.74804896 2.0880721
6.4482026 0.75184536 2.0350676
-5.5615606 0.83160323 2.0444002
-5.4752531 0.8628239 2.0724249
6.3709173 0.84281749 2.0834353
6.4133019 0.84988374 2.0238442
-5.5447731 0.92921668 2.033078
-5.4672165 0.94833517 2.0698569
6.3473101 0.95044971 2.0479474
-5.5323339 1.0156536 2.0210543
-5.4523139 1.0523497 2.0542157
6.2772408 1.0496709 2.0737708
6.3263435 1.0368356 2.0215907
-5.5362463 1.1180252 2.0127499
-5.4569855 1.1433843 2.061753
6.1888924 1.1806071 2.0914192
6.2509017 1.1423211 2.0435572
-5.5066557 1.2796967 2.0692959
-5.4664373 1.2411721 2.0513361
6.1755085 1.2503982 2.0647042
6.2163091 1.2222995 2.0348625
-5.5280042 1.3664895 2.0292501
-5.472805 1.3226446 2.0414259
6.0868549 1.3900297 2.0806611
6.1451988 1.3322364 2.0465302
-5.627697 1.4870254 2.0711918
-5.5667572 1.4483604 2.0579751
6.0663581 1.4516397 2.060394
6.1095915 1.409976 2.019762
-5.7316074 1.5847423 2.0852351
-5.6643434 1.547278 2.0373235
-5.5997157 1.5078892 2.070519
5.979311 1.5829085 2.0731831
6.0205855 1.5467319 2.041795
-5.9267282 1.6747109 2.0402992
-5.8396611 1.6663662 2.0472796
-5.7492638 1.6336253 2.066587
5.9437094 1.6524136 2.0594218
-6.1294136 1.7910265 2.0776055
-6.0532889 1.7887219 2.0607834
-5.9539218 1.7575769 2.0376005
-5.8833303 1.7156508 2.0840983
5.8628378 1.7631595 2.063817
5.912539 1.7510849 2.0130894
-6.1436563 1.8486454 2.0259438
-6.0531697 1.8100684 2.0583477
5.7703366 1.872311 2.077687
5.8266468 1.8460627 2.0333977
-6.3024969 1.9671702 2.028892
-6.252553 1.9358344 2.0522027
-6.1887541 1.9114017 2.0590627
5.6838698 1.9520323 2.0930207
5.7415252 1.9438212 2.0377276
-6.4121776 2.0743222 2.0758774
-6.3732619 2.0620327 2.045444
5.5786734 2.0726426 2.0810075
5.6408496 2.0507312 2.0396566
-6.444067 2.1555786 2.0289786
5.4627247 2.1750176 2.0887861
5.5456705 2.1376524 2.0418932
-6.5145812 2.2699251 2.0376272
-6.4837265 2.2338364 2.0368643
5.3849277 2.2680151 2.0563011
5.4446144 2.2289729 2.0449572
-6.5337601 2.3315594 2.0357993
-1.862759 2.3352044 2.082577
-1.7635891 2.3511996 2.056951
-1.661347 2.3756943 2.0377052
-1.5759025 2.382494 2.0413001
-1.4755344 2.3864584 2.0579987
-1.3773071 2.3965192 2.0733356
-0.56514889 2.3922131 2.0708046
-0.46547869 2.3737531 2.0874865
-0.35681853 2.3801522 2.0690954
-0.26978353 2.3652442 2.0925181
-0.16914372 2.3866875 2.0796044
-0.077621609 2.3967247 2.0949678
5.2665586 2.3746941 2.0536199
5.3323159 2.3281744 2.0415504
-6.5674529 2.4428883 2.0351753
-2.0313094 2.4659331 2.0546348
-1.94897 2.4449396 2.0422819
-1.8610117 2.424957 2.0331004
-1.7665095 2.4192262 2.0578022
-1.6727921 2.407891 2.0798852
-1.5714679 2.4066184 2.0702088
-1.4782032 2.4054673 2.091285
-1.3693175 2.4198003 2.0926614
-1.2638656 2.4324181 2.0915389
-1.0482461 2.4613581 2.091743
-0.93762708 2.4416041 2.0819325
-0.86715853 2.4386656 2.0837941
-0.76448107 2.4425035 2.0606081
-0.66958195 2.4297223 2.0547831
-0.55934036 2.425149 2.0519078
-0.46067777 2.4185169 2.032073
-0.36979532 2.412879 2.0422597
-0.25832245 2.4201603 2.0290024
-0.15298045 2.4112408 2.0585964
-0.042601597 2.4514699 2.0332694
0.053427499 2.4659619 2.0474641
0.1375951 2.4896293 2.0368266
5.0869026 2.4994855 2.0746834
5.1556149 2.459198 2.0632577
5.2233214 2.4214075 2.0424516
-6.6035442 2.5540848 2.0353086
-6.5896606 2.5544546 2.0335474
-2.1277733 2.5572987 2.0783465
-2.0592098 2.5376697 2.0578074
-1.9767932 2.5151293 2.007736
-1.4410459 2.5348244 2.0069056
-1.3456132 2.523982 2.03405
-1.2522274 2.5414305 2.0169971
-1.1552253 2.5360091 2.0332472
-1.0602585 2.5439789 2.0115535
-0.96844327 2.5165882 2.0355592
-0.87090105 2.5253127 2.0176246
-0.77589023 2.5151761 2.0152113
-0.66252804 2.501363 2.003571
0.094424471 2.5098567 2.0116091
0.16655697 2.517277 2.0378594
0.24669132 2.5404811 2.0449169
0.34565562 2.5794504 2.0580833
4.9836254 2.5735264 2.0935805
5.0577831 2.5420032 2.0577683
5.1253304 2.5226476 2.0228467
-6.6083136 2.673527 2.0329776
-6.5977974 2.6617303 2.0339851
-2.1595049 2.6603909 2.0787618
-2.0814261 2.6360886 2.0296497
0.3456234 2.6069007 2.0161891
0.4493356 2.6236665 2.0525284
0.55108243 2.6700237 2.0398402
0.63045061 2.6859543 2.0796425
4.8499465 2.670476 2.0666397
4.9461241 2.6315567 2.0429578
-6.6105142 2.762645 2.0335851
-2.1403918 2.7592659 2.0348234
-2.0634382 2.7048447 2.0302308
0.65916878 2.7226627 2.0393708
0.75360352 2.750447 2.0538199
0.83410847 2.7739239 2.0682652
4.5648165 2.7910838 2.0792077
4.6584067 2.7648563 2.0645874
4.7498393 2.7315636 2.0525711
4.8137226 2.7325983 2.0106134
-6.6123915 2.8474641 2.031508
