# .PCD v0.7 - Point Cloud Data file format
VERSION 0.7
FIELDS x y z
SIZE 4 4 4
TYPE F F F
COUNT 1 1 1
WIDTH 1535
HEIGHT 1
VIEWPOINT 0 0 0 1 0 0 0
POINTS 1535
DATA ascii
3.2538164 0.31899977 4.0232201
3.3671734 0.31947616 4.0323677
3.4225602 0.31815821 4.0258751
3.5689139 0.30296451 4.0029087
3.65027 0.30343536 4.0117168
3.7342172 0.30673495 3.99979
3.8228934 0.31315482 3.969635
3.9694576 0.30803585 3.9584339
4.0081687 0.27566037 3.9712093
4.3875685 0.38070381 3.9512529
1.5820233 0.38783741 3.9914353
1.6153799 0.37897414 4.0120354
1.7517989 0.37103105 4.0087781
1.8856748 0.40414169 4.0169239
1.9608958 0.41313404 4.0365243
2.0146935 0.43117115 4.0157442
2.1350729 0.43915626 4.0073266
2.261795 0.41576722 4.0175924
2.3730555 0.39465764 4.0639839
2.4313548 0.40907514 4.0388231
2.5622137 0.41242024 4.0173388
2.6324799 0.41366544 4.0077944
2.7643957 0.38534001 4.0160995
2.8191485 0.39086688 4.0071645
2.9540093 0.38057011 3.9738607
3.0376723 0.39076707 3.9951644
3.1696939 0.37847427 3.9862559
3.2260332 0.36741531 3.9727108
2.0056238 0.42275968 4.0387459
2.1304018 0.44440117 3.9894743
2.2532032 0.45968542 3.96805
2.6035922 0.43025887 3.9839377
3.0850763 0.42757457 3.9487545
-4.9131308 1.5851789 4.002799
-4.9222975 1.6509112 4.0078425
-4.546473 1.7381994 3.9816096
-4.4743109 1.6964223 4.0006223
-4.4057579 1.7290972 3.9663448
-5.0348973 1.7998784 3.9750896
-4.9559202 1.7942806 4.0253906
-4.8616772 1.796141 3.9919641
-4.7209125 1.8102784 3.9924195
-4.6348414 1.7985086 4.0042982
-4.4284506 1.7919108 3.9847636
-4.3763084 1.8148075 3.9906318
-4.2750854 1.7812414 3.9808793
-5.7474761 1.9329925 4.0379162
-5.3106742 1.8986861 3.9594746
-5.2168884 1.9204235 4.0168018
-5.1555638 1.8814707 4.0155783
-5.0217876 1.8910071 4.016768
-4.9494071 1.8715502 4.0397701
-4.8552108 1.8471229 4.0278234
-4.7576547 1.8503526 4.0464907
-4.6756296 1.8664278 4.0745468
-4.5500436 1.8522257 4.0467019
-4.4522533 1.8626616 4.0250325
-4.347096 1.8773882 3.9885275
-4.2500033 1.8963501 4.0014467
-4.2058659 1.9230907 4.0099187
-5.9204764 1.9442964 4.0154552
-5.8349175 1.9271202 4.0172529
-5.3660159 1.9512676 3.9498026
-5.312367 1.9933456 4.0001693
-5.2407331 1.9508033 4.0371323
-5.1714783 1.946535 4.0227022
-5.0242758 1.9426458 4.0590987
-4.9632225 1.9276134 4.0697908
-4.8841677 1.923844 4.0713058
-4.7777267 1.8857106 4.0988483
-4.6717906 1.870028 4.0893164
-4.4166002 1.8874336 4.0772066
-4.3271232 1.9253218 4.0592141
-4.2276802 1.9339679 4.0935545
-4.1815853 1.9483874 4.0686822
-4.0848064 1.9943675 4.011591
-3.9820371 1.9750909 4.002389
-3.8443301 1.9713242 3.9984727
-5.7999134 2.1124501 3.9856281
-5.4291692 2.0851316 3.9834163
-5.3356824 2.06815 4.0318575
-5.2575245 2.0527768 4.0834703
-5.1647544 2.0497956 4.1006875
-5.0680103 2.0170846 4.0967188
-4.9427147 2.0141325 4.0746474
-4.9018159 1.9878372 4.1055756
-4.8178654 1.9319743 4.1147842
-4.3134718 1.9379565 4.0814853
-4.2258229 1.9652574 4.113687
-4.1199598 2.0455172 4.0854955
-4.0694604 2.0395999 4.0449963
-3.9983981 2.0513625 4.0034528
-5.9975524 2.1895897 3.9996128
-5.8241439 2.1061811 4.0086646
-5.5882988 2.2070007 3.9848258
-5.5281043 2.1883032 4.005331
-5.4397979 2.1505749 4.0237784
-5.3538661 2.1397052 4.0559564
-5.2840443 2.1182775 4.1036725
-5.1788754 2.0775218 4.1266222
-4.9864912 2.065624 4.102962
-4.11022 2.0751104 4.0945883
-4.032608 2.1247244 4.0675554
-3.9737613 2.1614363 4.0323925
-3.9073129 2.189641 3.9886384
-3.7168014 2.1893632 4.0150747
-5.7279463 2.2680891 3.9928186
-5.6253915 2.2784626 3.998848
-5.5434299 2.2604306 4.0410919
-5.456387 2.2456074 4.0605392
-5.3724985 2.2400911 4.0958266
-5.3076587 2.1854067 4.1270957
-5.1147656 2.1484542 4.1740513
-3.9962466 2.2117183 4.104332
-3.9373374 2.2298672 4.0556903
-3.8751359 2.2562909 4.018043
-3.808445 2.2727211 3.996743
-5.7016821 2.3834493 4.009747
-5.6406574 2.3630168 4.0088682
-5.5543618 2.3351634 4.050437
-5.4714932 2.3248179 4.0989528
-5.3986902 2.3126857 4.1215696
-3.9013255 2.3286796 4.0871387
-3.8706281 2.384778 4.0709019
-5.8065524 2.4704685 4.0200639
-5.7486081 2.4408 4.0335269
-5.6468444 2.4579995 4.0485506
-5.5615377 2.4448764 4.0638428
-5.477931 2.4222472 4.1059513
-3.8698595 2.4370451 4.0757904
-3.850971 2.4260483 4.02004
-5.8869691 2.5562139 3.9890745
-5.8517385 2.5458088 4.0272155
-5.7613616 2.5161495 4.0582113
-5.6758046 2.5317259 4.0719361
-5.5610414 2.542321 4.1226387
-5.4720597 2.5008011 4.1313014
-3.9656484 2.5443323 4.1505504
-3.9063816 2.5667999 4.1037841
-3.8415031 2.5574136 4.048934
-3.7933581 2.5669882 4.0006709
-3.6241686 2.6012731 4.0319805
-5.8844805 2.68172 3.9866331
-5.840848 2.6402223 4.0127912
-5.7608614 2.6633573 4.0506129
-5.6579323 2.6563451 4.1095624
-5.593977 2.6089842 4.1183476
-3.8926775 2.6232674 4.0900846
-3.8575859 2.6384139 4.0661321
-3.7879078 2.618664 3.9940319
-3.7017584 2.6394694 4.01756
-3.416626 2.6999633 4.0107675
-3.3960557 2.7010159 4.0299692
-5.9695125 2.7757514 3.9617603
-5.8693409 2.7673051 4.0017838
-5.8580632 2.78215 4.0054779
-5.7421427 2.7459528 4.0799704
-5.6921992 2.7419844 4.1289067
-3.8888578 2.7826653 4.1003084
-3.8613372 2.7353539 4.0505028
-3.8277659 2.6812928 4.0113244
-3.5580618 2.7391899 3.9974592
-3.408937 2.7175775 4.0162945
-5.9694214 2.8249629 3.9869878
-5.9406281 2.8468571 4.0020986
-5.8422332 2.8516049 4.0248656
-5.7699819 2.840503 4.0735822
-5.7122183 2.8114114 4.1217494
-3.9671926 2.8654275 4.1406889
-3.9022431 2.8393452 4.0883532
-3.8897591 2.8717961 4.0175424
-5.9794579 2.9498701 3.9646802
-5.9129634 2.9431016 4.0042143
-5.830225 2.923815 4.0428228
-5.7715793 2.957046 4.1028533
-5.7007642 2.9445689 4.1505241
-5.5679069 2.9867404 4.1487675
-3.997582 3.0153527 4.1104126
-3.9356759 2.9483793 4.0605006
-3.9011202 2.9076884 4.0151844
-5.9927087 3.0855989 3.948833
-5.9246244 3.0791438 3.9961443
-5.8554444 3.057642 4.0546203
-5.7709308 3.0478568 4.0976262
-5.6725183 3.0630853 4.1626277
-5.603188 3.0554984 4.1537838
-5.5521793 3.0746894 4.1675553
-4.0158162 3.070519 4.1140375
-3.9822593 3.0360894 4.0433879
-3.9231336 3.0332837 3.9843514
-5.8863196 3.1699958 4.0143075
-5.8515987 3.1498873 4.0436864
-5.7922158 3.1502364 4.0986562
-5.6914482 3.1178849 4.1595159
-4.1587529 3.1865015 4.1192226
-4.0919614 3.1471651 4.1058683
-4.0241685 3.1741965 4.0825229
-3.9703248 3.1812668 4.0303063
-3.9290614 3.1567061 3.9992001
-5.9021621 3.2217133 3.9917698
-5.8515382 3.2415469 4.0383301
-5.7767754 3.2712114 4.0899625
-4.1951027 3.2802477 4.114749
-4.1613545 3.2865303 4.0961447
-4.0434628 3.2526958 4.0440879
-4.0003271 3.205399 4.0549908
-3.951694 3.1861069 4.0216908
-5.8668518 3.2986755 3.9771955
-5.8255615 3.3342035 4.0327606
-5.7715869 3.3435593 4.0881581
-5.7048836 3.4068778 4.1443548
-4.2738523 3.3908236 4.1300182
-4.2099981 3.3623729 4.0916286
-4.1629505 3.360045 4.0709443
-4.0598502 3.3394563 4.0125198
-4.0013237 3.3125365 3.9626219
-5.8571744 3.4253838 3.9522052
-5.8004756 3.4336729 3.9929621
-5.7526922 3.4476161 4.0611768
-5.720171 3.4500673 4.1114736
-4.2989035 3.4908571 4.1025944
-4.2353411 3.4588668 4.068727
-4.1614337 3.4303904 4.0280881
-4.1072168 3.4140379 3.9972498
-5.8021927 3.5539806 4.0084128
-5.745863 3.5539203 4.0545897
-5.6958876 3.5215058 4.1043162
-4.3206377 3.5652363 4.097209
-4.2494307 3.5566189 4.0317106
-4.192379 3.5141826 4.0066028
-4.0637851 3.5015879 3.924515
-5.8045869 3.6464658 4.0186563
-5.7596869 3.6525278 4.0607634
-5.694736 3.6772234 4.1146684
-4.5101337 3.6594946 4.149446
-4.4044232 3.6526508 4.1142449
-4.3603725 3.6231477 4.0980854
-4.271235 3.6347156 4.0326905
-4.1878395 3.6273985 3.9746242
-4.1338058 3.633635 3.9333332
-5.7810063 3.7172625 4.0139837
-5.7457905 3.7427449 4.0370297
-5.6683631 3.7507367 4.0860229
-4.4939942 3.7228386 4.1343184
-4.4281502 3.7689605 4.0874839
-4.3467131 3.7552183 4.0414014
-4.2768111 3.7552977 4.0200648
-4.2319393 3.7145801 4.0184402
-5.7184896 3.8243282 4.0258431
-5.6499934 3.8582551 4.0609126
-5.5685349 3.8924005 4.0951748
-4.4830265 3.8643115 4.1299601
-4.4231734 3.8541179 4.0919437
-4.374619 3.8578899 4.0441585
-4.2643814 3.7781086 4.0020137
-4.2380061 3.7745934 3.9778469
-5.6959567 3.90451 4.0060997
-5.6301355 3.9331286 4.0218439
-5.565527 3.9694958 4.0541444
-5.4949059 3.9806225 4.1085348
-4.5053554 3.9608619 4.0947413
-4.4583173 3.9611371 4.0326443
-4.35044 3.9026122 3.9967127
-4.3188081 3.9348915 3.9504042
-5.6032004 4.0204816 3.9937944
-5.5467138 4.0275202 4.0339437
-5.4362631 4.0815725 4.0771604
-5.3852425 4.0848002 4.1221771
-4.7143316 4.1026917 4.1244545
-4.6251554 4.0842004 4.1171689
-4.5615897 4.0696135 4.0698509
-4.4818835 4.0157757 3.9900479
-5.5038128 4.1159649 4.0099101
-5.4449859 4.1429296 4.0300159
-5.3568349 4.1943755 4.0687647
-5.2485843 4.1957917 4.1071234
-5.1625352 4.1909118 4.1305594
-5.0301714 4.1772475 4.1272612
-4.9692092 4.2101722 4.1062608
-4.8226037 4.1889577 4.115551
-4.7400184 4.180963 4.07938
-4.6423244 4.1516018 4.0522294
-4.5469456 4.1444697 4.0297909
-4.4689131 4.1401777 3.9972863
-4.3676405 4.0946279 3.942837
-5.413507 4.2146301 4.0038781
-5.3632002 4.2411866 4.0179648
-5.24823 4.2436905 4.0520535
-5.1572309 4.2691765 4.0747108
-5.0260806 4.2589359 4.0814056
-4.9422789 4.2659292 4.0640674
-4.8525529 4.2546883 4.0601668
-4.7649674 4.2556586 4.0443673
-4.6588836 4.2248063 4.0034771
-4.5519266 4.1975346 3.9959326
-4.4290514 4.1856456 3.9659076
-5.2501316 4.3092871 4.0053725
-5.1398745 4.3162785 4.0150709
-5.0528102 4.3315258 4.0303798
-4.960083 4.3434691 4.015399
-4.8661656 4.3183489 4.0089779
-4.7302041 4.3263946 4.0022602
-4.6820593 4.3156071 3.9739876
-4.4868922 4.2733102 3.923028
-5.0294495 4.3973494 3.9801896
-4.7186394 4.3739557 3.9691114
0.066245951 -6.2826424 4.0752769
-0.11379881 -6.1888056 4.1882386
-0.033273492 -6.2065101 4.1251245
0.062131677 -6.1967421 4.147675
0.07953617 -6.2583485 4.1360297
0.85259324 -6.2570558 4.0856099
-0.097563878 -6.1227283 4.1504521
0.048982058 -6.1357851 4.1467452
0.084902138 -6.0819387 4.1028318
0.7219978 -6.0691066 4.1164627
0.69038999 -6.0706339 4.0992479
-0.40687671 -5.9600368 4.09797
-0.32370788 -5.9809022 4.1273775
-0.23475967 -6.0075612 4.1211824
-0.13006054 -6.0514278 4.1229911
-0.036420722 -6.0466542 4.147872
0.049080651 -6.0557809 4.1578431
0.14148159 -6.0386796 4.1604624
0.23243457 -6.0280347 4.1432161
0.44911328 -6.0105515 4.1700687
0.52233052 -6.0100126 4.1685839
0.66499078 -6.0280571 4.13304
0.73565954 -6.0305319 4.1389933
0.93270344 -5.980567 4.0862899
1.3942025 -6.0816841 4.1491146
1.4482728 -6.0985241 4.1075449
-0.42061791 -5.8994684 4.0966458
-0.26748687 -5.9493928 4.1788206
-0.16415101 -6.0047245 4.1821241
-0.064192809 -5.9980617 4.170392
0.028641485 -6.0221529 4.1911068
0.14824463 -6.0265408 4.1980457
0.25889945 -6.0277104 4.1862102
0.37407133 -6.0093241 4.2185202
0.42304567 -6.018208 4.149466
0.5609085 -6.0153642 4.1627493
0.64088404 -5.974607 4.2168283
0.75923848 -5.9738388 4.1680055
0.82860404 -5.9461231 4.1871829
0.94434077 -5.9389138 4.1380925
1.0305094 -5.9142857 4.1140785
1.134145 -5.9158411 4.0779042
1.2168144 -5.8955116 4.0809288
1.2871125 -5.8787212 4.0733237
1.3809044 -5.8779888 4.0323324
-0.50192159 -5.8009858 4.0846453
-0.44021675 -5.8199196 4.1244259
-0.36223847 -5.8444872 4.1648479
-0.28770861 -5.8852792 4.191545
-0.17996289 -5.9268064 4.2392244
0.90624022 -5.907918 4.2005873
0.99989533 -5.8829427 4.1774926
1.041398 -5.8748956 4.1604548
1.1444887 -5.8229594 4.1259451
1.2372679 -5.8231511 4.1034274
1.3135291 -5.8498864 4.0822425
1.4327832 -5.7659783 4.0905271
1.5195138 -5.7564893 4.0354724
1.5884212 -5.7932038 4.0538692
-0.57655424 -5.7160397 4.0882082
-0.51471442 -5.7344928 4.1398687
-0.4482722 -5.7627387 4.1569552
-0.37814406 -5.7768798 4.1874413
-0.32123932 -5.8020015 4.206234
1.1129203 -5.7220006 4.2547417
1.192391 -5.7633891 4.1525936
1.2435285 -5.734158 4.1176848
1.3495544 -5.7432704 4.1019778
1.4371319 -5.729681 4.0876031
1.5119247 -5.688004 4.0984573
1.6067175 -5.7062478 4.0437741
-0.58948177 -5.6097064 4.0822535
-0.56404221 -5.6156797 4.1003742
-0.46735957 -5.6553278 4.2031941
-0.40238872 -5.6893873 4.2021632
1.0492853 -5.6518168 4.256176
1.1074742 -5.6387477 4.2006884
1.19499 -5.6761947 4.1735964
1.2828379 -5.6852946 4.1435819
1.3443029 -5.6278324 4.1624703
1.4355425 -5.6374483 4.1415486
1.5296503 -5.6468368 4.0901351
1.6236281 -5.6589365 4.0442767
1.7260317 -5.6292772 4.0570602
-0.59122467 -5.5269542 4.094512
-0.53901649 -5.5675354 4.1333575
-0.49180612 -5.567255 4.2171612
-0.40252423 -5.5144024 4.2539258
1.141575 -5.5880117 4.2243419
1.1872367 -5.5684075 4.213728
1.270319 -5.558496 4.1918736
1.3541164 -5.5595727 4.1686311
1.4400432 -5.5433621 4.1509557
1.5063583 -5.551424 4.1193519
1.5946101 -5.5354557 4.0713196
1.7625983 -5.5487785 4.1167264
1.8200294 -5.5538487 4.0541253
-0.66731745 -5.4791832 4.0528083
-0.6010347 -5.4431601 4.1130204
-0.55146962 -5.4550943 4.1358566
-0.45843062 -5.4619012 4.2204242
-0.42625806 -5.441925 4.2415857
1.0198398 -5.474309 4.2755294
1.1023793 -5.4454975 4.2269449
1.1879375 -5.4520836 4.2126355
1.2491122 -5.4274483 4.1934233
1.3656464 -5.4626484 4.157371
1.4516845 -5.4277196 4.1488967
1.5025299 -5.4459395 4.1277633
1.6003436 -5.4441848 4.0844131
1.6952584 -5.4762864 4.037313
-0.86921054 -5.3042989 4.1170855
-0.59039932 -5.3727212 4.0984316
-0.54321319 -5.3518081 4.151238
-0.47815105 -5.3379941 4.1858878
-0.42187184 -5.3600516 4.2395272
0.96766454 -5.3624229 4.2434716
1.1919217 -5.3398995 4.2152324
1.2719507 -5.3543715 4.1753325
1.3583033 -5.3225727 4.1628036
1.4263326 -5.3617487 4.1394186
1.5181998 -5.353086 4.0938387
1.6435724 -5.3671145 4.0645556
1.6815157 -5.3257918 4.0629058
-0.60243279 -5.3008895 4.0979443
-0.50459468 -5.271163 4.112493
-0.46554559 -5.2705626 4.1772704
-0.38046059 -5.2391353 4.199039
1.1993448 -5.2702527 4.2079506
1.271813 -5.2400117 4.197288
1.3710917 -5.2654743 4.1559176
1.408094 -5.2269316 4.144207
1.5433199 -5.2767696 4.0902915
1.6236913 -5.259203 4.084394
1.7077636 -5.2444634 4.0553136
-0.48349646 -5.2007418 4.1062646
-0.41501859 -5.1336608 4.1201692
-0.37381685 -5.1516433 4.1572361
-0.27096343 -5.1063967 4.1898937
-0.16609059 -5.1048536 4.2452822
-0.11141066 -5.0435991 4.2275167
0.89987689 -5.0570903 4.2395844
0.9581641 -5.1328053 4.270926
1.0998969 -5.1837063 4.2598648
1.1788263 -5.1429048 4.2381039
1.2791823 -5.1641259 4.1829972
1.3625554 -5.1520252 4.1720929
1.4310539 -5.1771765 4.1439681
1.5552148 -5.1269321 4.0848632
1.6210978 -5.1447845 4.0710397
1.7093289 -5.1873012 4.0391827
-0.43192923 -5.0771003 4.1663728
-0.36769688 -5.0680399 4.1278586
-0.25240391 -5.0570302 4.1410937
-0.16351445 -5.0236802 4.1402278
-0.074292026 -4.9881396 4.1939268
0.74091506 -4.9629278 4.2248349
0.86292601 -5.0267873 4.2289329
0.93325114 -5.0202122 4.2316041
1.072228 -5.0171065 4.2144113
1.158783 -5.0228305 4.1688204
1.2446429 -5.0484667 4.1485052
1.342103 -5.0607204 4.1346302
1.4676383 -5.0215106 4.0919123
1.5387632 -5.0572352 4.092412
1.6053132 -5.0173683 4.0672617
1.7098299 -5.0657067 4.0321851
-0.42308941 -4.9476023 4.1738873
-0.42166749 -5.0250525 4.1234045
-0.12628666 -4.9686007 4.1311731
-0.053353388 -4.9396319 4.1601439
0.057627365 -4.8972793 4.1975813
0.1364551 -4.9077053 4.1976724
0.24361008 -4.8999448 4.2070932
0.31749332 -4.9133139 4.230103
0.44484094 -4.8820338 4.2061758
0.55874813 -4.9171891 4.2338481
0.61101907 -4.9174242 4.2300844
0.79444849 -4.9054542 4.2009687
0.86546552 -4.9130549 4.1761222
0.94058514 -4.9137912 4.1801467
1.0290886 -4.9158759 4.1706352
1.1551197 -4.95327 4.1476793
1.2323974 -4.9646244 4.099216
1.4668547 -4.9455552 4.0677252
1.5268323 -4.9261665 4.0686116
1.6294051 -4.9418445 4.0337291
1.7602237 -4.9774652 4.0212464
1.8319262 -4.9331527 4.0341911
2.1462834 -4.8707075 4.0295982
-0.45197037 -4.8548503 4.1252127
-0.15640241 -4.8103752 4.1297297
-0.035474241 -4.8436675 4.1505556
-0.0037507911 -4.8485394 4.1422462
0.13803792 -4.832922 4.143188
0.26535043 -4.8096681 4.1615739
0.34528562 -4.8202171 4.1582646
0.41079798 -4.8505344 4.1852307
0.53730243 -4.8392005 4.1832471
0.65916431 -4.8381414 4.1597867
0.77385592 -4.8049054 4.1829262
0.85565853 -4.8563671 4.183609
0.94473261 -4.8511772 4.1501284
1.0629369 -4.8639526 4.1387153
1.1766927 -4.8694005 4.1228194
1.3381146 -4.8491211 4.0872531
1.4555749 -4.8535371 4.0772438
1.5498525 -4.855082 4.0609961
1.6566136 -4.8381276 4.0573359
1.777349 -4.82512 4.0599923
1.8538674 -4.800128 4.0550723
1.9467723 -4.8258028 4.0662193
2.0181377 -4.8147378 4.0430765
2.2601411 -4.8026409 4.0600147
2.303628 -4.8152761 4.0449047
2.5329852 -4.7950816 4.0790367
2.770288 -4.7748532 4.07935
2.8743906 -4.795887 4.0842943
2.92207 -4.786963 4.0776992
3.4066675 -4.8033905 4.0473623
-0.22978851 -4.8126478 4.1304107
-0.01706272 -4.7989984 4.1341963
0.035960265 -4.7874737 4.1330414
0.11613738 -4.7692966 4.1341267
0.22918399 -4.7933512 4.1075492
0.49094278 -4.8008451 4.1730533
0.58403111 -4.7418342 4.1534362
0.63709241 -4.7729139 4.1512613
0.74579531 -4.7747865 4.1392932
0.83015347 -4.7341809 4.1573973
0.95143306 -4.7994738 4.1204977
1.0259092 -4.8046818 4.1146388
1.1391026 -4.7597861 4.0793681
1.2613971 -4.7456555 4.0860248
1.312757 -4.7692218 4.0876722
1.4401352 -4.7502518 4.0660238
1.5800066 -4.7817135 4.0675073
1.6582533 -4.7240105 4.0666156
1.7373381 -4.7268362 4.0831466
1.8460549 -4.7180495 4.0856857
1.9827086 -4.6877923 4.0759063
2.0355027 -4.7211475 4.0748711
2.15137 -4.7297306 4.0856338
2.2513978 -4.7133613 4.0949941
2.3348334 -4.6989241 4.0909052
2.4474053 -4.706131 4.0818968
2.5482385 -4.7283616 4.0957246
2.6603341 -4.7141228 4.1173801
2.7324405 -4.7306447 4.1083221
2.8541734 -4.7327781 4.105804
2.9531987 -4.7366405 4.102612
3.0181403 -4.718873 4.1001353
3.1351221 -4.70609 4.0985732
3.2688382 -4.7068534 4.0838323
3.3314278 -4.7144732 4.0794992
3.4018385 -4.7610846 4.0763111
0.016656196 -4.741837 4.1835446
0.10341575 -4.7210231 4.162569
0.14303729 -4.680037 4.1419635
0.36112782 -4.6082635 4.0614047
0.57824165 -4.6980281 4.1486096
0.59389031 -4.6712708 4.1079597
0.75919038 -4.6977954 4.074553
0.85036027 -4.6777582 4.0968246
0.93474734 -4.6707716 4.111536
1.0207474 -4.6657624 4.0825939
1.1630729 -4.636662 4.0932178
1.2492079 -4.6369667 4.071032
1.3613927 -4.6355991 4.1127214
1.4263116 -4.623827 4.1074476
1.540015 -4.6261711 4.0793514
1.6837001 -4.6682072 4.0657477
1.7220579 -4.6729178 4.0677233
1.8368523 -4.6496434 4.0991039
1.9480305 -4.6322241 4.1003447
2.0600817 -4.6521773 4.1285949
2.1284974 -4.6313343 4.1560998
2.2526436 -4.6389041 4.1444468
2.3537745 -4.6413035 4.135406
2.434222 -4.6463475 4.1331339
2.5646315 -4.6366844 4.1711149
2.6383035 -4.6697164 4.1535687
2.7372618 -4.6539826 4.1590743
2.8433838 -4.6360788 4.1497636
2.9585145 -4.6525483 4.1438169
3.0512226 -4.6510358 4.1435404
3.1544685 -4.6489425 4.1536603
3.2404034 -4.6308274 4.1378484
3.3211784 -4.6140122 4.0979452
3.4276984 -4.6059933 4.0802379
3.4861495 -4.6867104 4.0342946
0.19446421 -4.5681615 4.1331124
0.24202201 -4.533216 4.1384249
0.37132889 -4.5408401 4.1310115
0.56670064 -4.5233932 4.1738148
0.62619406 -4.5395975 4.0898571
0.78890556 -4.6238384 4.0657291
0.82722884 -4.5039387 4.0621681
0.93870318 -4.5631809 4.0950513
1.0527546 -4.5722656 4.0985928
1.1552348 -4.5747023 4.079248
1.2673566 -4.5639291 4.0699234
1.345807 -4.5451331 4.0642061
1.4486758 -4.5599947 4.0938778
1.5307007 -4.5365663 4.0830536
1.6642613 -4.5235634 4.0933814
1.7394097 -4.4976783 4.1138077
1.8582751 -4.5500894 4.1301003
1.9729214 -4.5454302 4.1748824
2.037164 -4.5718403 4.1673188
2.1830902 -4.5710983 4.1854529
2.2481413 -4.5815954 4.1904087
2.3269343 -4.5825195 4.1897593
2.4249058 -4.5685081 4.198565
2.5209198 -4.6001449 4.1834989
2.6831896 -4.6005158 4.214644
2.7697041 -4.6045289 4.1947055
2.8464658 -4.6133614 4.1679735
2.9335651 -4.6117978 4.1735859
3.0728788 -4.5933537 4.1882539
3.1216326 -4.5877213 4.2077737
3.2564721 -4.5900373 4.1720924
3.3378539 -4.5358453 4.132226
3.4456985 -4.537591 4.1158013
3.5230479 -4.5366268 4.1006541
3.6337087 -4.5075803 4.0589528
0.30445063 -4.4738812 4.0874519
0.37090179 -4.4409008 4.1367373
0.39618137 -4.4260244 4.1980038
0.53934473 -4.4819493 4.1754742
0.64120471 -4.4315567 4.0790043
0.73430222 -4.4628167 4.0778408
0.83696157 -4.4429026 4.1176491
0.90539062 -4.5012822 4.0995855
1.0808684 -4.5110631 4.0558605
1.1441685 -4.4966655 4.0683336
1.2588495 -4.4422493 4.0904832
1.3525412 -4.4646816 4.0897737
1.4767632 -4.4366469 4.1112165
1.5630834 -4.4491887 4.14291
1.6427809 -4.4543524 4.1298795
1.7526808 -4.4605098 4.1573968
1.8402767 -4.4814434 4.185864
1.9791644 -4.4753613 4.2054067
2.0313218 -4.455935 4.2233405
2.160877 -4.4603438 4.2364244
2.2791433 -4.5003672 4.2278881
2.31546 -4.4651904 4.1610847
2.4153459 -4.5316401 4.1688709
2.5759771 -4.4931026 4.2462173
2.7082717 -4.4767399 4.2500196
2.8913255 -4.4179611 4.157361
2.9805298 -4.4594302 4.1548233
3.3024004 -4.5128884 4.1962762
3.3676496 -4.4826083 4.1753154
3.452563 -4.464097 4.161314
3.5375459 -4.4454403 4.1427684
3.608758 -4.4302702 4.1050448
3.6863346 -4.3848076 4.077374
0.72374713 -4.3649821 4.1335402
0.87430596 -4.3576088 4.054997
0.89267331 -4.4398041 4.0874004
1.1825482 -4.3347979 4.0903964
1.2641463 -4.3478622 4.1199055
1.352802 -4.3456287 4.1414165
1.4259588 -4.3759565 4.1527267
1.6446164 -4.353785 4.187283
1.7264498 -4.3693032 4.1957526
1.921822 -4.4073348 4.2390752
2.1839559 -4.3977795 4.2616978
2.3772671 -4.3545942 4.2381272
2.740005 -4.4066067 4.1889157
2.8325434 -4.3970504 4.1791263
3.0595157 -4.4157019 4.1096282
3.4009218 -4.4019856 4.217412
3.4826639 -4.3864946 4.2025452
3.5232086 -4.3923182 4.1836314
3.6505091 -4.3363695 4.1488056
3.7339437 -4.3238044 4.1019516
3.7937908 -4.2804317 4.0914211
1.0972372 -4.2418742 4.0583439
1.1657557 -4.2348852 4.1056919
1.258719 -4.2217917 4.1213837
1.3494359 -4.2482095 4.1496391
1.4500782 -4.2490945 4.1943803
1.5606225 -4.2776423 4.2265964
1.6753092 -4.2928119 4.2068753
1.7195185 -4.2792826 4.2316408
2.3816686 -4.2452335 4.1997471
3.5737803 -4.2730532 4.2363667
3.6742189 -4.2608991 4.1905398
3.7573206 -4.2511573 4.1505556
3.8446505 -4.2505012 4.0887794
3.8862262 -4.2150187 4.0779219
1.0354342 -4.0906653 4.0540414
1.0861145 -4.1550021 4.0836368
1.1617848 -4.1349821 4.1481614
1.2426122 -4.1573963 4.1524863
1.3539069 -4.1653261 4.1918612
1.4022975 -4.2022424 4.1966686
1.5751096 -4.2224517 4.2480617
3.7745872 -4.1491094 4.1930013
3.8531959 -4.1375556 4.1556439
3.9338543 -4.1305046 4.1146884
4.0152855 -4.1117139 4.0709758
0.66575032 -4.0073762 4.1115627
0.7415362 -3.9891653 4.1072898
0.75996852 -3.9700768 4.1010509
1.0166451 -4.0033083 4.0794883
1.0899857 -4.0415087 4.1117196
1.1394601 -4.0545917 4.1619964
1.2224178 -4.0827055 4.1908236
1.3234724 -4.0822434 4.2231917
3.797158 -4.1006107 4.2161198
3.8537266 -4.0800533 4.1909852
3.9534705 -4.0546455 4.1384969
4.0227041 -4.0315561 4.1097369
0.58157104 -3.9237459 4.111094
0.68124437 -3.9414752 4.1216083
0.99433994 -3.9194334 4.1032033
1.0557406 -3.9401143 4.1331191
1.1233021 -3.9577019 4.1680331
1.204368 -3.9497464 4.2158813
3.9193873 -3.9752855 4.2270989
3.972826 -3.9646935 4.1782951
4.0466466 -3.9524498 4.1202092
0.57773149 -3.8238053 4.1362548
0.64490116 -3.8402655 4.160851
0.71600777 -3.8415303 4.1463642
0.90511912 -3.8381717 4.0666046
0.98043054 -3.84816 4.1240387
1.0533557 -3.8466015 4.1562634
1.1350847 -3.8699543 4.1861897
1.1744694 -3.9051378 4.2007298
3.9799042 -3.8709881 4.1995025
4.0512171 -3.8505235 4.1485281
4.1332583 -3.8251464 4.1136613
4.3807764 -3.8422935 4.150063
0.62650794 -3.8038971 4.1260209
0.89417154 -3.7260149 4.1003633
0.96155202 -3.7405994 4.1387844
1.0381513 -3.7495282 4.1901207
1.108234 -3.7349198 4.2270274
4.0027766 -3.7978997 4.2263842
4.0540586 -3.7579014 4.1850781
4.1430168 -3.7485147 4.1276422
4.2109385 -3.7068467 4.1090412
0.58556437 -3.6715591 4.1746764
0.88663149 -3.6366832 4.0971961
0.95038569 -3.6553075 4.1500378
1.0208 -3.6749313 4.1952081
1.0986468 -3.6861429 4.2313223
4.0728498 -3.6674814 4.1963439
4.1423607 -3.6422298 4.1656404
4.2279224 -3.6387019 4.1188803
4.5309148 -3.7033777 4.1207585
0.82252741 -3.5878074 4.0530939
0.86992276 -3.5428209 4.1165071
0.92541337 -3.5630844 4.1716375
4.1085982 -3.5320826 4.2166672
4.1597066 -3.5510671 4.1753559
4.2566185 -3.5505972 4.147593
4.3102236 -3.5426242 4.1039047
4.5265718 -3.5630291 4.14889
4.6171937 -3.5027924 4.127594
0.64759016 -3.4754815 4.2146225
0.78357053 -3.4013953 4.1204176
0.85178578 -3.4411578 4.146203
0.89229345 -3.4367094 4.2065644
4.1817322 -3.4543734 4.2151823
4.2587805 -3.4410574 4.1787305
4.3345551 -3.4455013 4.1326795
0.77394843 -3.3693044 4.1267571
0.78123415 -3.362395 4.1203032
0.85213494 -3.3526149 4.1623387
0.86997962 -3.3752134 4.1805801
4.1918354 -3.3732622 4.2021985
4.2567034 -3.349334 4.1619477
4.3403916 -3.3221631 4.1249886
4.3977275 -3.3077221 4.0841155
0.70844412 -3.2012713 4.1010642
0.76757139 -3.2492449 4.1390691
0.83094895 -3.2594984 4.1751809
0.87592953 -3.2523379 4.2271495
4.1866026 -3.2680101 4.2040825
4.2661109 -3.2479701 4.1878109
4.3480086 -3.2399778 4.1495237
4.4073281 -3.2319803 4.1011009
4.600172 -3.2852967 4.0048795
0.65189648 -3.1063731 4.0788889
0.67490941 -3.1013293 4.1398039
0.75705743 -3.1651032 4.1468983
0.80397069 -3.1616225 4.201365
4.2822523 -3.1602085 4.1955819
4.3548622 -3.1553702 4.1477747
4.4208765 -3.155802 4.0895672
0.61508393 -2.9673822 4.1525397
0.67897826 -3.042624 4.128099
0.73514581 -3.0545931 4.1892967
4.2860789 -3.0494056 4.2067127
4.359827 -3.0495758 4.1588154
4.4255457 -3.0427063 4.1096392
0.64131159 -2.9758592 4.1382065
0.67374623 -2.9793458 4.1385593
0.72914207 -2.9594982 4.1847653
0.76304948 -2.9758701 4.2100515
4.2800961 -2.9286971 4.2159982
4.3678222 -2.9396017 4.169806
4.4436936 -2.952714 4.1201019
0.63942081 -2.834482 4.1372013
0.65542197 -2.8364356 4.1769691
0.71419406 -2.8703938 4.1923051
4.3828006 -2.8611636 4.1890125
4.4525466 -2.8457041 4.1525931
4.5014338 -2.8496118 4.1134706
0.56949979 -2.7534926 4.1395717
0.5998202 -2.7670908 4.1816592
0.69386017 -2.7935119 4.2190485
4.3961678 -2.7596118 4.2087789
4.4639072 -2.7596817 4.159862
4.5310822 -2.7491403 4.1144042
0.56381589 -2.6335673 4.146235
0.60392022 -2.6676111 4.1874533
4.4020934 -2.699887 4.2158828
4.4675641 -2.6575091 4.1783161
4.5467205 -2.6412649 4.1319733
4.6151056 -2.6394305 4.0822625
0.42519382 -2.4755435 4.131537
0.49731985 -2.5293806 4.1230826
0.538863 -2.5546606 4.1583924
0.57942504 -2.5568016 4.2023692
4.4914455 -2.5605643 4.1913447
4.5518627 -2.5446262 4.1458583
4.5976329 -2.5402181 4.1067629
0.43201661 -2.4436576 4.094573
0.46279079 -2.4369051 4.1704869
0.494784 -2.4562821 4.1882396
4.4806137 -2.4555147 4.2011237
4.5406208 -2.4203134 4.1561399
4.6177754 -2.4371765 4.0983648
0.40094146 -2.3188882 4.1023407
0.43881217 -2.3508778 4.161869
0.47298732 -2.3995109 4.1817508
4.5190616 -2.3923793 4.1757555
4.5590696 -2.3517168 4.1614218
4.6356578 -2.342802 4.1209831
4.7414813 -2.3122485 4.0885291
4.8253732 -2.3060129 4.047471
0.38238892 -2.2385573 4.1177487
0.41443384 -2.276787 4.1821394
4.5146122 -2.2673898 4.2308679
4.5854154 -2.2708893 4.1774898
4.6559348 -2.2487416 4.1579928
4.7274208 -2.2682414 4.1075478
0.32625431 -2.0956681 4.1111665
0.36051992 -2.1475999 4.1391177
0.38667476 -2.1488955 4.1950936
4.6783476 -2.1714611 4.1905046
4.7484822 -2.1363673 4.1436391
4.7796926 -2.118665 4.1180673
0.23775804 -1.9915667 4.0754304
0.3004021 -2.059772 4.1206679
0.33550254 -2.0735774 4.1781363
0.33838814 -2.1063945 4.1402931
4.5871191 -2.0859044 4.2552848
4.6852441 -2.048075 4.1981621
4.7539439 -2.0391343 4.1544609
4.8097234 -2.0358405 4.0994148
0.22187303 -1.9275675 4.1208587
0.24508446 -1.9503721 4.1647806
4.6864624 -1.9529264 4.2121758
4.7496028 -1.9439313 4.1674924
4.8177147 -1.9315697 4.1288791
4.9036112 -1.9116261 4.0756946
0.23154587 -1.847205 4.1274886
0.22660843 -1.8476615 4.1648488
4.7570815 -1.8576545 4.1823645
4.8355036 -1.8494771 4.1304407
4.8823495 -1.8338108 4.0957737
0.12180707 -1.7199731 4.1099887
0.16197228 -1.7383232 4.1461492
0.2039873 -1.7966847 4.1792321
4.7583041 -1.7527479 4.1908531
4.8350101 -1.7463473 4.1339188
4.8981314 -1.7338632 4.0869231
0.10525612 -1.6394396 4.1283917
0.12407346 -1.6706157 4.122385
4.7841125 -1.6628847 4.1895652
4.8512287 -1.6479774 4.1432948
4.9108419 -1.6511952 4.0738316
0.050763391 -1.5133822 4.1251793
0.065089472 -1.5432535 4.1341968
0.070180856 -1.5725095 4.1593494
4.7673616 -1.536925 4.1886811
4.842423 -1.5436742 4.1483679
4.9036183 -1.5354539 4.0971422
0.055631384 -1.4614978 4.1436019
0.061404705 -1.4253813 4.1346216
0.04844309 -1.4842869 4.1686831
4.7126808 -1.4162757 4.2115965
4.7542682 -1.4501559 4.1881156
4.8368301 -1.4584565 4.14114
4.897603 -1.4912164 4.1017642
4.9551697 -1.4683014 4.0559106
-0.013796567 -1.31217 4.0620189
0.08484152 -1.3777256 4.1655006
0.093873203 -1.3543935 4.1633224
4.6929531 -1.3405951 4.2018404
4.7495856 -1.3396771 4.1721725
4.8319397 -1.3461291 4.1282554
4.8994174 -1.3741338 4.0967679
4.9653053 -1.3628768 4.0466909
0.040530909 -1.2269994 4.0861912
0.059319206 -1.2312155 4.1638985
0.060065139 -1.2576897 4.1869006
4.6031528 -1.2831616 4.2449241
4.6680646 -1.2487608 4.1972771
4.7531495 -1.2483425 4.1565957
4.8249512 -1.2683902 4.1140962
0.0367814 -1.1918201 4.1317215
0.052417312 -1.1742469 4.1307888
0.057162061 -1.1704431 4.1684098
4.5862379 -1.1183357 4.2138
4.6570296 -1.1312656 4.1810107
4.7415228 -1.1393996 4.1357889
4.8105927 -1.1481085 4.0959806
0.037827715 -1.0456567 4.0782266
0.067305505 -1.0408717 4.1274371
0.070169158 -1.0612384 4.1847835
4.5650487 -1.0437206 4.1956697
4.6535387 -1.040693 4.1573334
4.759625 -1.0614769 4.1106296
4.8299775 -1.0549258 4.0793195
0.02805838 -0.92597115 4.0984526
0.062603109 -0.94983876 4.1553659
0.052396726 -0.95473617 4.1588969
4.4918928 -0.95371383 4.2047625
4.5450654 -0.9535405 4.1788917
4.6470327 -0.94903612 4.1288428
4.7093697 -0.94135243 4.100059
4.7974119 -0.95287591 4.07165
-0.033039674 -0.87486148 4.0934329
0.015322926 -0.86245924 4.0894279
0.057066802 -0.86086524 4.1505804
0.08754044 -0.81722111 4.1763549
4.4054728 -0.80227661 4.2025638
4.4661489 -0.8434059 4.1863909
4.5572681 -0.85185724 4.1428814
4.6389108 -0.85609192 4.1014876
0.082397178 -0.79220015 4.1088424
0.11893647 -0.74429536 4.1818533
0.19184886 -0.63139206 4.1447043
0.32705155 -0.67723322 4.1370511
4.3774076 -0.72996211 4.1916285
4.4454403 -0.76203883 4.1660566
4.5462589 -0.76308089 4.1269112
4.6071897 -0.76217932 4.1005983
0.12068996 -0.66143429 4.1007881
0.14254953 -0.63425815 4.1402693
0.2284603 -0.60129243 4.1815467
0.3477833 -0.67863607 4.1063004
0.35356992 -0.63366723 4.135066
4.2855196 -0.61481595 4.1960783
4.3550706 -0.64197469 4.1649165
4.4437881 -0.65436411 4.1310267
4.5169506 -0.66349435 4.1096931
0.11540674 -0.58653486 4.0848961
0.18932055 -0.57605773 4.1401176
0.23246077 -0.55730104 4.1758637
0.27523133 -0.52630264 4.2117853
4.0959005 -0.48829067 4.2332993
4.1663637 -0.50333345 4.2120676
4.2700076 -0.55037558 4.1694684
4.3342257 -0.56801558 4.1420846
4.4318261 -0.56589735 4.1091552
0.1491064 -0.54281408 4.0695152
0.21175276 -0.49525955 4.1104822
0.2569302 -0.46492043 4.136744
0.31051183 -0.45484442 4.1924796
0.41113734 -0.37959078 4.2346487
4.0039678 -0.42495304 4.2588267
4.0738854 -0.43105036 4.2138367
4.1777859 -0.43539605 4.1748247
4.2357783 -0.44078955 4.1501956
4.33565 -0.45105863 4.0964608
4.416275 -0.48473203 4.0895519
0.22854601 -0.40962699 4.072032
0.28309807 -0.38496006 4.1254053
0.33826002 -0.32713023 4.1481833
0.40448776 -0.34699497 4.2080097
3.9953172 -0.31044775 4.2352242
4.0743017 -0.32558241 4.2040534
4.1676869 -0.34178737 4.1634307
4.2420673 -0.36964494 4.1159983
4.3326111 -0.3754001 4.0975862
0.30887845 -0.30964068 4.1134181
0.35525936 -0.26960346 4.1353159
0.43719271 -0.23792939 4.1625395
0.49296299 -0.21418218 4.1968684
3.9178421 -0.20021246 4.2441916
3.9784379 -0.24114849 4.2246122
4.0641432 -0.23917317 4.1870642
4.1493421 -0.25902319 4.1490774
4.220305 -0.24835144 4.1176505
4.3433247 -0.25713903 4.0809989
0.39863461 -0.2255308 4.1004224
0.47353411 -0.18774523 4.1288452
0.54775667 -0.15398009 4.152843
0.62748349 -0.10367963 4.1651392
0.7101742 -0.084816433 4.2017512
3.8555229 -0.095825814 4.2337551
3.9684384 -0.14559415 4.1941381
4.0515242 -0.15245137 4.160697
4.1365738 -0.16340472 4.1197338
4.2121172 -0.18101674 4.0928245
4.3064547 -0.21633317 4.0813699
0.51217568 -0.13037597 4.0903654
0.58679461 -0.090411559 4.1078429
0.6545341 -0.063201748 4.1179686
0.72043782 -0.072406873 4.1929255
0.83466494 0.022659931 4.1699266
0.9110018 0.019541342 4.217329
3.7710805 -0.014733691 4.2080035
3.8484576 -0.037755173 4.2025805
3.9519355 -0.047902383 4.1604486
4.0373168 -0.055769905 4.1245565
4.1052256 -0.077868432 4.1003556
0.61053783 -0.04362122 4.0723648
0.69203746 -0.029873142 4.1068654
0.7696768 0.0011100085 4.1311879
0.85437346 0.038648803 4.1416645
0.94242144 0.068884261 4.1760774
1.0074285 0.10088641 4.1828332
1.2000922 0.14584848 4.2192178
1.2480947 0.15273394 4.1853065
3.4926946 0.13203831 4.2441587
3.6010282 0.11570478 4.2217755
3.6717768 0.067607112 4.1872511
3.7499146 0.06821093 4.1644588
3.8309393 0.076223567 4.1325536
3.9315259 0.048016116 4.1295495
4.0407801 0.008732019 4.0999241
0.76265955 0.044015363 4.060534
0.88877374 0.088878952 4.0956435
0.96795356 0.10352957 4.1260724
1.0439483 0.11994457 4.1593781
1.1556889 0.16239025 4.1551557
1.2710171 0.17275609 4.1676884
1.3413914 0.20247705 4.1796417
1.4646699 0.23275679 4.2151761
1.5123262 0.22455172 4.2355289
2.1893601 0.16292888 4.0985675
2.256748 0.1622863 4.1035624
2.4371698 0.28152639 4.1504288
2.8472271 0.28081504 4.1742697
3.0886569 0.23413536 4.21597
3.1490159 0.21641411 4.1981888
3.2562542 0.20829959 4.1897464
3.3535969 0.20930432 4.1973624
3.4576597 0.1954335 4.1912861
3.5564954 0.17553847 4.1766233
3.6287177 0.16345869 4.1434102
3.7308528 0.12919955 4.1183581
3.8250642 0.11273047 4.1009192
1.1744728 0.19211954 4.12082
1.2578634 0.22185983 4.13415
1.3588656 0.21291408 4.1466436
1.4490577 0.26436251 4.1535511
1.5435551 0.27734387 4.178853
1.6445196 0.29480496 4.1776323
1.7490716 0.28919533 4.1832972
1.8272974 0.30890149 4.17453
1.9134245 0.34746957 4.1691375
2.1546319 0.28095666 4.1721487
2.230999 0.2944515 4.1856561
2.3132241 0.32480878 4.1759682
2.4382122 0.31816831 4.1782222
2.5464494 0.28636628 4.1702323
2.664176 0.29007536 4.1802845
2.7588558 0.28386378 4.1811819
2.8265283 0.286544 4.1479058
2.9488308 0.27520639 4.1607747
3.0417154 0.26193467 4.1754656
3.1591363 0.23075117 4.1592064
3.2464526 0.2425404 4.1387939
3.32654 0.23669456 4.149159
3.4416196 0.23690347 4.1363416
3.5278931 0.20351027 4.1488085
3.6126482 0.18060389 4.1349792
1.2081875 0.24288028 4.078064
1.2268693 0.24821021 4.0766211
1.482278 0.28781247 4.1288214
1.5117459 0.31205148 4.0827422
1.6451298 0.30811346 4.1333308
1.7713449 0.29445735 4.1373343
1.8661482 0.33887595 4.1446905
1.9461554 0.36818624 4.1476574
2.0417273 0.35805568 4.1501012
2.148267 0.33721316 4.1266932
2.2867424 0.34483087 4.1513214
2.328949 0.345507 4.1580548
2.4460638 0.34412289 4.1421499
2.5440121 0.29454729 4.1211352
2.6348822 0.29691008 4.1275969
2.753083 0.31642538 4.1225533
2.8402445 0.29472718 4.1205487
2.9588327 0.29283628 4.1167254
3.0343204 0.29774714 4.11092
3.1251125 0.26809078 4.0964608
3.2812047 0.26837406 4.0799379
3.3569264 0.28307447 4.0903516
3.4192102 0.26008224 4.1108918
1.8817621 0.37689596 4.0757227
2.0013235 0.37532234 4.1348448
2.0556474 0.3814835 4.1119728
2.1470432 0.37448111 4.0949926
2.2265255 0.35018575 4.1174788
2.3740721 0.38491338 4.0989666
2.4206827 0.38053346 4.1125312
2.7025993 0.3445653 4.0712972
3.0799191 0.35118929 4.0302963
-4.9270115 1.7359722 4.0259352
-5.3186417 1.8410326 4.0758314
-4.879282 1.8242277 4.0933266
-4.7644529 1.8712107 4.0946937
-4.57797 1.7952288 4.097703
-4.5706377 1.7658347 4.1664667
-5.2120848 1.92223 4.0463095
-5.0783515 1.8695769 4.0651798
-5.0116067 1.8877395 4.0964928
-4.9204564 1.8624537 4.0812864
-4.8427844 1.9136299 4.1308212
-4.7342 1.9119835 4.1198673
-4.6745691 1.892554 4.1208358
-4.5605445 1.8948672 4.1344962
-4.4621177 1.9052923 4.1053538
-4.2381349 1.897107 4.0733991
-4.2195148 1.896696 4.1109166
-4.1372681 1.926118 4.0724173
-5.1899271 1.9859964 4.0719728
-5.1222806 1.990469 4.0781755
-5.0158772 1.9437201 4.1255817
-4.938128 1.9409931 4.1445446
-4.826714 1.9184266 4.1310191
-4.7484903 1.9418443 4.1589513
-4.6463761 1.9343895 4.1811366
-4.5649052 1.9431481 4.2053146
-4.4550447 1.9468011 4.153801
-4.3353896 1.9762299 4.138823
-4.2514496 1.957647 4.1182995
-4.20818 1.983621 4.1080084
-5.7732439 2.0732858 4.0952001
-5.2298584 2.0748439 4.0993567
-5.1447868 2.0615129 4.1173596
-5.0485978 2.0539923 4.130898
-4.9654284 2.0748069 4.1680751
-4.7634106 2.0194077 4.2379289
-4.6861229 1.9729471 4.2341347
-4.5580034 1.9622167 4.2149444
-4.4800782 1.994861 4.2162881
-4.3331876 1.9978303 4.1889477
-4.2452435 2.0462697 4.1616416
-4.1891136 2.0486207 4.1259618
-4.0935712 2.0909669 4.0832157
-5.3148217 2.1755316 4.1118126
-5.2421618 2.1342285 4.1210294
-5.1581097 2.1388514 4.1634016
-5.0750861 2.1675787 4.2015691
-4.9530349 2.1187699 4.1778779
-4.7851706 2.1013658 4.250545
-4.2820888 2.0760748 4.2329087
-4.2351885 2.1159422 4.2321467
-4.1331487 2.1194303 4.1548381
-4.07551 2.1669068 4.1366596
-4.0204973 2.1639538 4.078012
-5.7668376 2.2886374 4.0652785
-5.5808415 2.3270912 4.0371995
-5.4213858 2.2906766 4.092463
-5.3388953 2.2520368 4.1314144
-5.2480526 2.2475152 4.1773338
-5.1655049 2.2293789 4.1813149
-5.0858364 2.2061951 4.2168198
-4.9624414 2.1992981 4.2415204
-4.8921442 2.2179027 4.2616739
-4.7912307 2.2057354 4.2708721
-4.0919633 2.2689922 4.2308979
-4.0411782 2.2463522 4.1507616
-3.9755144 2.2689099 4.1130061
-3.9306004 2.2832985 4.0750194
-5.7204518 2.3750284 4.0430732
-5.6730328 2.4098642 4.0301108
-5.5148187 2.3752482 4.08354
-5.4314084 2.3598075 4.1131654
-5.3497744 2.3388374 4.1584539
-5.2621999 2.3416669 4.1932254
-5.1821818 2.3591237 4.2234263
-4.0777063 2.2989945 4.2455754
-3.9842012 2.3166285 4.1819191
-3.9517941 2.329812 4.1542859
-3.9027267 2.3710816 4.1112614
-5.7729001 2.4248915 4.026155
-5.6852994 2.5061555 4.0704823
-5.6284714 2.4814889 4.0645723
-5.5290976 2.4634833 4.0919094
-5.4346437 2.451982 4.1304164
-5.3583884 2.4459355 4.1669393
-5.2704759 2.4231503 4.2135582
-3.9863338 2.468241 4.2161555
-3.9478309 2.4515984 4.1625857
-3.89712 2.4675214 4.1148424
-5.7905293 2.5234733 4.0502443
-5.7279229 2.5212276 4.068224
-5.6206679 2.5638254 4.0999541
-5.5427575 2.586705 4.1488295
-5.4510117 2.5512509 4.1576352
-5.3650088 2.5429518 4.1956015
-5.2948942 2.5042233 4.2268395
-3.9840312 2.5476205 4.1911058
-3.964572 2.5505302 4.1505637
-3.9131868 2.5377605 4.0955601
-3.5513322 2.5887837 4.1938787
-5.8354416 2.6540596 4.0430803
-5.7289314 2.6724367 4.075314
-5.636219 2.6529651 4.1220102
-5.5546064 2.6480458 4.169631
-5.4811101 2.631732 4.2067466
-5.3749084 2.6493213 4.2390485
-3.9829705 2.6693075 4.2082944
-3.9438148 2.6367092 4.159924
-3.8933747 2.6576545 4.095593
-3.5829918 2.6003745 4.1892862
-5.7098498 2.7426097 4.1111197
-5.6667695 2.7646205 4.1477084
-5.5612035 2.7386067 4.1889648
-5.513453 2.7642767 4.2113252
-5.3219104 2.7241285 4.2462711
-5.2364268 2.7278171 4.2485795
-5.2167635 2.7695811 4.2569237
-3.9896679 2.744369 4.2100573
-3.9350095 2.7575309 4.1593366
-3.9082932 2.7730994 4.1151791
-3.8728046 2.7689307 4.0766621
-5.7192688 2.8555899 4.1100798
-5.6376467 2.8235655 4.1661735
-5.5693135 2.8342395 4.2000184
-5.4820104 2.8002937 4.2305589
-5.1807394 2.7864771 4.221911
-4.2459521 2.9151616 4.2789831
-3.9952271 2.8588715 4.2140017
-3.9479053 2.8556886 4.1736293
-3.9262168 2.8056211 4.1327963
-5.7284551 2.9269516 4.1328273
-5.654048 2.9477525 4.1597676
-5.5956287 2.9528592 4.1983142
-5.5449944 2.9164262 4.2417812
-4.1607938 3.0267339 4.1970353
-4.1293044 2.9769697 4.2046123
-3.9602106 2.9430487 4.1188054
-5.7792149 3.0416548 4.0798984
-5.7370734 3.0494599 4.1239696
-5.6584768 3.0508723 4.1603336
-5.5733638 3.0336294 4.1741972
-5.5519953 3.0660958 4.1632938
-4.1271358 3.0500505 4.1758742
-4.0517521 3.0445125 4.1391635
-3.9838226 3.0215824 4.1302667
-5.8568153 3.1611617 4.0378032
-5.797596 3.1654882 4.0832748
-5.74121 3.1533883 4.1295967
-5.6605749 3.1532917 4.1941066
-5.553864 3.1078336 4.1922445
-5.5182042 3.1451302 4.1736054
-4.1924539 3.1607656 4.1909313
-4.1580086 3.1556458 4.1502161
-4.0811949 3.1566873 4.110364
-3.995187 3.1368737 4.094296
-5.7798195 3.2712162 4.0872941
-5.7263956 3.2519026 4.1386566
-5.6930332 3.2287052 4.1859555
-4.213757 3.2269032 4.180481
-4.1742334 3.2397716 4.1221881
-4.0864458 3.2156129 4.0889211
-3.9640589 3.1761982 4.0537138
-5.7883039 3.3208368 4.0680375
-5.7512875 3.3393312 4.1109242
-5.6771398 3.3659797 4.1692162
-5.5539355 3.4150476 4.2079735
-5.4992213 3.3998213 4.226017
-4.3091774 3.3730326 4.1826158
-4.264492 3.3548014 4.1317153
-4.1909399 3.3213131 4.0939584
-4.0948215 3.2780159 4.065588
-5.771574 3.4252687 4.0712814
-5.7261291 3.4258959 4.1074095
-5.6600933 3.4546456 4.1453881
-5.5873723 3.4581482 4.1823568
-5.4124761 3.4672012 4.2598424
-4.6169949 3.5237303 4.2524085
-4.4983301 3.514513 4.2317367
-4.4031644 3.4923031 4.1997151
-4.3453798 3.4339035 4.1627192
-4.2717361 3.4295192 4.1062741
-4.2097955 3.3902409 4.0705581
-5.6977611 3.5488906 4.09373
-5.6516881 3.539156 4.1364379
-5.5869684 3.5413167 4.1946187
-5.5068374 3.5162768 4.2220874
-4.9691882 3.5483303 4.1817927
-4.8264871 3.5583715 4.2111773
-4.7493958 3.5750244 4.2108412
-4.5834231 3.5837488 4.2145615
-4.55479 3.5785675 4.2058692
-4.4233284 3.5621829 4.1757669
-4.3692784 3.5388682 4.1406889
-4.2770157 3.5225494 4.0724134
-5.7739501 3.6430461 4.0605559
-5.7230616 3.6389103 4.0923114
-5.6517243 3.6502116 4.1329865
-5.5762391 3.6333978 4.1881146
-4.5874062 3.7028739 4.2026305
-4.5449791 3.6648605 4.1666574
-4.4734511 3.6333768 4.1434159
-4.3695664 3.6274278 4.0996246
-5.6292319 3.7405505 4.1257172
-5.5616751 3.7543588 4.1771951
-5.4881139 3.756943 4.2119489
-4.5983396 3.8058753 4.2020717
-4.5583329 3.7542977 4.1605644
-4.4518123 3.7703745 4.1065044
-4.4169946 3.7818322 4.0713558
-5.5863409 3.8185685 4.1215229
-5.53789 3.859755 4.1322222
-5.4563146 3.8577514 4.1731591
-5.3588171 3.8760827 4.1996102
-5.2946844 3.9077332 4.2169714
-4.7831926 3.8227322 4.2497482
-4.7857246 3.911252 4.2035942
-4.6162329 3.8421307 4.2167149
-4.5239763 3.8421166 4.1551328
-4.4810452 3.839119 4.1228099
-4.3901539 3.8263764 4.056067
-5.533658 3.9258206 4.1004419
-5.4574432 3.9571502 4.1460323
-5.3598289 3.9548676 4.1748042
-5.2800674 3.9586377 4.2118855
-5.1632028 3.9983919 4.2247586
-5.0247488 3.995795 4.2395048
-4.9470344 3.9814079 4.2285376
-4.8387065 3.961473 4.1969109
-4.7389402 3.9591451 4.2098098
-4.5437999 3.9262228 4.169353
-4.4702001 3.9136279 4.0921454
-5.4351492 4.0346484 4.1156893
-5.3483028 4.0413289 4.1681843
-5.2760167 4.0923486 4.1681733
-5.1510324 4.0728292 4.1892228
-5.0418205 4.0647163 4.1832609
-4.9441614 4.0897393 4.1830096
-4.8212113 4.0380411 4.1815295
-4.783175 4.0679302 4.1657438
-4.648066 4.0634398 4.1394558
-4.5850968 4.0201631 4.1228261
-5.4010983 4.1102843 4.091085
-5.3442707 4.1313763 4.1270313
-5.2726316 4.1380291 4.1508574
-5.1571975 4.1499319 4.1593671
-5.038414 4.1485243 4.1389575
-4.9531269 4.1443167 4.1436181
-4.8366179 4.1486273 4.1473675
-4.7731519 4.1362066 4.1348581
-4.6855583 4.1079068 4.0988569
-4.5437198 4.1237721 4.050456
-5.3033342 4.1688075 4.126842
-5.2090349 4.2211051 4.0905848
-5.1325769 4.2142701 4.1354742
-5.0597048 4.2317295 4.1129255
-4.9234715 4.2215085 4.0991116
-4.8569708 4.2134233 4.0980468
-4.7799454 4.2179508 4.0648656
-5.0174794 4.2623625 4.0725169
0.055182729 -6.2384238 4.296679
0.20529993 -6.2156248 4.2954125
-0.18288697 -6.0839372 4.2385693
-0.14950266 -6.1020598 4.2150531
0.096213773 -6.1293845 4.2055364
0.27504423 -6.1294155 4.2635946
0.40235746 -6.117291 4.2875381
0.74868423 -6.1593285 4.2623596
-0.27537715 -6.0319328 4.1957474
-0.21484777 -6.0290728 4.2286167
-0.17190081 -6.0295215 4.2658539
-0.096102446 -5.9911342 4.246119
0.045973111 -5.9996181 4.2292657
0.14668055 -5.9949379 4.2507482
0.26521981 -6.0113959 4.2639332
0.3188414 -6.0299044 4.2430882
0.56424093 -5.994607 4.1939535
0.63892978 -6.0115256 4.2208061
0.71950215 -5.9835997 4.2088957
-0.31481513 -5.8698416 4.2002182
-0.22730668 -5.9158378 4.2319317
-0.1600159 -5.9498143 4.2611113
-0.085289672 -5.9690461 4.2503796
0.053016398 -5.9654465 4.2652164
0.14139514 -5.9676986 4.2712212
0.26713338 -5.9877672 4.2759066
0.35870516 -5.9708867 4.2714958
0.4282133 -5.9502902 4.281426
0.56155437 -5.9680915 4.2754922
0.65549707 -5.9533076 4.2450137
0.7482152 -5.9308167 4.2418027
0.87000966 -5.9174142 4.1981325
0.91300941 -5.8916025 4.222321
-0.43712062 -5.8000345 4.2205811
-0.32202637 -5.8307805 4.2130208
-0.25424016 -5.8717804 4.2452426
-0.17106715 -5.8978658 4.2819777
-0.055026852 -5.9092112 4.3035951
0.015821513 -5.9289689 4.3046761
0.13043772 -5.9295921 4.3247128
0.28359443 -5.9315267 4.3262715
0.33943218 -5.9238791 4.322475
0.48587844 -5.915318 4.3254099
0.60179627 -5.893755 4.2978859
0.63123941 -5.8724356 4.3122382
0.76032585 -5.889081 4.3029552
0.88904065 -5.9013848 4.2256756
0.9423849 -5.8468533 4.2427864
1.0327724 -5.8136363 4.2340069
1.1135814 -5.8077121 4.1915197
-0.48882645 -5.7303791 4.2267895
-0.43695372 -5.7269731 4.2400618
-0.33795014 -5.7863994 4.2682939
-0.28456631 -5.7965369 4.3053861
-0.18653074 -5.8620186 4.3200917
-0.0808158 -5.8485193 4.3724546
0.65438724 -5.8138447 4.3546977
0.79017824 -5.754869 4.3794227
0.85544127 -5.7813811 4.3338389
0.98661274 -5.7797799 4.2974491
1.0939887 -5.7684374 4.2628269
1.1065087 -5.7228832 4.2504711
1.2017632 -5.6892314 4.2267542
1.3890421 -5.7022567 4.1506786
1.4916048 -5.6666498 4.1228766
-0.48941615 -5.6328816 4.2178912
-0.4601112 -5.6661839 4.2159457
-0.39364189 -5.6641588 4.2887373
-0.33140826 -5.7200041 4.3061771
0.7863 -5.6120577 4.3784833
0.88295293 -5.6437969 4.3432789
1.0018454 -5.6417489 4.319346
1.0728632 -5.6724963 4.2814326
1.1645386 -5.65028 4.2407708
1.2516999 -5.6400094 4.2478151
1.3136581 -5.6148829 4.1808038
1.4192359 -5.6522355 4.1847353
1.4869151 -5.6189079 4.1491408
-0.49871922 -5.5756416 4.2144723
-0.43848187 -5.5463438 4.2440782
-0.38451758 -5.5335045 4.2818327
-0.34766409 -5.5362296 4.3269186
0.77156329 -5.5537972 4.3626118
0.84580046 -5.5181823 4.3588109
0.9929679 -5.55199 4.2990422
1.0725453 -5.5604076 4.2613153
1.0828804 -5.5414071 4.2634125
1.2280366 -5.5501285 4.2505317
1.3266659 -5.5724058 4.1916285
1.4235549 -5.5630121 4.1773009
1.4990896 -5.5240231 4.1623797
-0.49966052 -5.4751105 4.2088785
-0.44949773 -5.4380698 4.2363157
-0.35968778 -5.4589701 4.2741184
-0.30503398 -5.440896 4.317215
0.80365235 -5.4346485 4.3605204
0.88573587 -5.4320164 4.3525815
0.95251584 -5.4104991 4.2896676
1.05286 -5.4339266 4.2799911
1.1869422 -5.4417729 4.255363
1.2379494 -5.4440618 4.212534
1.3205563 -5.486486 4.1899672
1.4184847 -5.4614749 4.1689806
1.5288289 -5.485703 4.1505766
-0.55016041 -5.3392997 4.2152843
-0.50913584 -5.335362 4.1979356
-0.45955721 -5.3452497 4.235486
-0.3544499 -5.3270068 4.2694979
-0.28933966 -5.3266149 4.2960896
0.8403275 -5.3334584 4.3408127
0.89440894 -5.3388367 4.2921195
0.97002292 -5.3404007 4.2561755
1.0577213 -5.371767 4.2796555
1.1370049 -5.3598728 4.2671771
1.2430679 -5.3142166 4.2072902
1.3088763 -5.3528552 4.1818862
1.4336541 -5.3494301 4.140852
-0.46967632 -5.2688122 4.217761
-0.46296772 -5.2836523 4.2003832
-0.35292378 -5.250257 4.2308946
-0.2772494 -5.2482061 4.2953262
-0.20274855 -5.2514067 4.3366714
0.70496082 -5.2171273 4.3708181
0.83007318 -5.2937374 4.3472838
0.89055663 -5.2607193 4.2976165
0.98536855 -5.2665205 4.2673407
1.0373514 -5.2533288 4.2644963
1.2119491 -5.257165 4.2201295
1.4175212 -5.2559838 4.1700735
-0.48978692 -5.2031755 4.2307072
-0.42644176 -5.1343427 4.2810626
-0.34415314 -5.1396933 4.253108
-0.25129861 -5.1425996 4.2630787
-0.16703536 -5.1311698 4.2753391
-0.085648067 -5.1038318 4.3312726
0.063991092 -5.0887671 4.3461976
0.11384002 -5.1009078 4.3332958
0.38311934 -5.1105123 4.3722053
0.43825734 -5.0910172 4.3650036
0.5177328 -5.0733843 4.3492894
0.65581727 -5.119031 4.3232946
0.88423461 -5.1548796 4.3190198
0.97567379 -5.167923 4.275383
1.0505972 -5.1517477 4.2777991
1.1581768 -5.1761422 4.2531252
1.217924 -5.1511178 4.1942492
1.4043927 -5.180625 4.1484132
-0.41481045 -5.0952768 4.2321615
-0.37833795 -5.1185679 4.2614102
